ply
format ascii 1.0
element vertex 1250
property float x
property float y
property float z
property uchar red
property uchar green
property uchar blue
end_header
-461.965 371.468 -460.911  255 255 255
502.535 17.4385 -61.863  255 255 255
499.992 9.47398 -62.5097  255 255 255
126.545 -56.5074 152.135  255 255 255
-117.337 370.948 -557.278  255 255 255
553.661 -30.7061 -8.12442  255 255 255
-546.634 364.586 -431.233  255 255 255
596.148 -94.5 83.2616  255 255 255
91.8799 -48.2363 161.305  255 255 255
-401.508 350.264 -489.766  255 255 255
15.7996 364.444 -600.629  255 255 255
-77.2403 16.7343 59.195  255 255 255
-478.494 356.118 -475.805  255 255 255
528.423 -24.9088 -51.1301  255 255 255
-52.5047 363.127 -603.93  255 255 255
1.76595 -34.1958 162.562  255 255 255
-539.496 338.032 -442.792  255 255 255
-86.4017 27.69 61.9348  255 255 255
-79.5541 360.955 -605.73  255 255 255
121.688 307.317 -578.793  255 255 255
-452.505 342.397 -494.064  255 255 255
481.296 -14.2021 -81.6226  255 255 255
9.11936 -71.8805 206.225  255 255 255
436.726 43.8596 -189.269  255 255 255
461.936 -52.3908 -16.5975  255 255 255
-84.7839 -32.1137 117.605  255 255 255
579.566 -84.0689 1.376  255 255 255
88.4103 -102.8 211.789  255 255 255
-59.3529 -57.01 155.86  255 255 255
-102.705 330.4 -591.829  255 255 255
-92.3698 -44.1411 124.741  255 255 255
-81.1125 -58.2779 144.137  255 255 255
45.5936 284.181 -568.529  255 255 255
-84.1926 323.009 -601.964  255 255 255
539.483 -72.8183 -25.5273  255 255 255
532.21 -76.149 -25.592  255 255 255
18.7263 -109.489 204.625  255 255 255
-127.599 316.065 -599.921  255 255 255
-431.915 327.574 -525.115  255 255 255
165.45 -109.704 164.49  255 255 255
-136.668 -20.3894 75.8192  255 255 255
-471.617 312.223 -509.311  255 255 255
-423.448 313.48 -537.797  255 255 255
-418.631 308.548 -537.198  255 255 255
-397.857 309.206 -527.838  255 255 255
-184.058 301.028 -606.834  255 255 255
-448.235 300.722 -515.268  255 255 255
-193.71 316.865 -605.488  255 255 255
2.72581 253.213 -539.337  255 255 255
86.7373 -136.388 213.509  255 255 255
-7.50035 -119.109 180.565  255 255 255
534.885 -97.0288 -26.1861  255 255 255
599.438 -156.318 -3.14722  255 255 255
61.6666 269.071 -638.51  255 255 255
549.176 -121.067 -32.8177  255 255 255
-56.6534 -105.646 169.531  255 255 255
17.7939 -141.117 204.432  255 255 255
538.746 -111.462 -38.3669  255 255 255
-228.958 285.443 -595.661  255 255 255
228.839 -263.192 383.12  255 255 255
-80.9709 -90.8296 144.997  255 255 255
-145.321 -58.3642 59.2083  255 255 255
565.056 -113.347 -53.5912  255 255 255
-54.9176 -118.459 173.327  255 255 255
158.122 -172.933 159.455  255 255 255
548.073 -145.958 -32.1093  255 255 255
579.309 -152.002 -9.26358  255 255 255
579.52 -164.209 -11.0503  255 255 255
-283.219 275.979 -580.96  255 255 255
596.227 -172.917 -21.3829  255 255 255
-116.148 -110.031 130.916  255 255 255
527.364 -119.294 -122.712  255 255 255
-110.246 -86.789 57.7746  255 255 255
23.4887 -157.478 206.674  255 255 255
-154.577 -40.4442 -1.53456  255 255 255
-44.4807 -153.128 180.996  255 255 255
-222.789 -11.768 -85.2185  255 255 255
589.155 -178.132 -34.4814  255 255 255
-188.099 -56.5027 3.05684  255 255 255
-187.722 -64.7812 6.63171  255 255 255
74.3246 -191.814 190.973  255 255 255
577.217 -198.22 -24.4075  255 255 255
-98.8646 -131.707 137.347  255 255 255
-181.471 -88.8469 35.7021  255 255 255
-95.5569 -148.068 142.008  255 255 255
39.3676 -204.564 209.568  255 255 255
90.3005 -202.677 189.268  255 255 255
-181.782 -101.045 63.3895  255 255 255
166.876 -325.983 422.296  255 255 255
586.122 -200.168 -58.2563  255 255 255
578.506 -200.203 -58.1816  255 255 255
72.4576 -207.23 187.99  255 255 255
97.0469 -229.26 222.15  255 255 255
140.39 -356.826 481.861  255 255 255
-251.232 -77.7707 -16.1456  255 255 255
-198.035 -119.918 60.1723  255 255 255
594.206 -248.118 12.899  255 255 255
-169.433 102.57 -523.413  255 255 255
-152.082 -158.288 111.236  255 255 255
499.305 -166.86 -165.158  255 255 255
0.277278 -226.987 178.543  255 255 255
162.686 -363.707 428.716  255 255 255
-132.438 -193.031 155.474  255 255 255
-176.649 -154.721 71.1695  255 255 255
600.543 -250.205 -43.2664  255 255 255
172.406 -364.347 416.47  255 255 255
-247.389 -140.351 27.6653  255 255 255
-378.645 97.7251 -478.716  255 255 255
536.81 -227.745 -135.575  255 255 255
137.627 -269.844 210.915  255 255 255
148.698 -278.5 195.093  255 255 255
-232.489 -150.529 46.8997  255 255 255
-238.72 -156.432 63.4239  255 255 255
-241.422 -151.891 66.6088  255 255 255
152.381 -285.642 205.432  255 255 255
-241.882 -155.878 53.4249  255 255 255
-150.395 -189.939 122.259  255 255 255
111.611 -295.219 259.943  255 255 255
578.066 -294.273 -52.6098  255 255 255
592.454 -294.509 -37.0021  255 255 255
600.282 -312.076 -24.4725  255 255 255
-283.346 7.99383 -391.17  255 255 255
-279.399 8.15153 -395.923  255 255 255
-190.568 -217.279 129.631  255 255 255
-205.575 -202.988 86.6368  255 255 255
-212.103 -195.944 73.91  255 255 255
-8.16197 -287.987 202.814  255 255 255
102.034 -324.619 236.498  255 255 255
136.982 -324.825 175.26  255 255 255
160.682 -308.866 179.659  255 255 255
-204.431 -222.853 124.116  255 255 255
-16.4289 -309.405 231.392  255 255 255
-155.364 -249.189 142.186  255 255 255
-18.042 -316.927 221.937  255 255 255
168.554 -319.919 150.327  255 255 255
-136.992 -257.023 155.712  255 255 255
-75.0372 -291.699 177.949  255 255 255
-356.946 -27.9285 -371.301  255 255 255
-234.775 -213.019 38.1886  255 255 255
-82.6873 -294.401 172.301  255 255 255
26.8204 -317.225 197.219  255 255 255
27.1874 -333.865 194.621  255 255 255
-5.60022 -315.856 225.438  255 255 255
20.4296 -339.394 203.139  255 255 255
-317.729 -74.1947 -341.346  255 255 255
27.4626 -339.441 200.275  255 255 255
-477.414 -25.2456 -388.945  255 255 255
-171.809 -280.187 111.658  255 255 255
-10.4471 -342.026 208.621  255 255 255
-55.5172 -325.817 179.757  255 255 255
-143.481 -286.884 138.955  255 255 255
145.773 -357.674 164.261  255 255 255
-138.264 -276.89 125.062  255 255 255
-15.6462 -342.422 216.029  255 255 255
-16.1251 -342.999 184.101  255 255 255
-164.535 -295.903 112.837  255 255 255
107.491 -360.69 172.526  255 255 255
-30.0215 -318.505 137.221  255 255 255
-161.927 -282.428 109.6  255 255 255
-378.909 -68.1077 -433.9  255 255 255
455.177 -403.256 1.51148  255 255 255
-348.948 -110.687 -298.404  255 255 255
-407.529 -105.537 -312.552  255 255 255
-401.045 -87.7012 -317.215  255 255 255
195.096 -368.215 110.7  255 255 255
186.023 -371.052 92.3404  255 255 255
-31.2453 -356.067 206.485  255 255 255
137.191 -367.254 123.075  255 255 255
-60.62 -332.807 154.002  255 255 255
-372.24 -114.931 -291.555  255 255 255
96.6889 -376.161 154.136  255 255 255
-77.2998 -332.02 132.528  255 255 255
12.2496 -382.432 172.298  255 255 255
-346.016 -146.773 -268.547  255 255 255
-159.088 -311.157 91.4521  255 255 255
-396.881 -131.922 -294.772  255 255 255
-53.4254 -354.436 142.509  255 255 255
30.4033 -391.715 178.524  255 255 255
-225.013 -271.893 -8.51732  255 255 255
-55.7027 -353.859 135.207  255 255 255
-222.716 -276.685 -7.07471  255 255 255
-36.289 -365.804 137.278  255 255 255
-218.66 -285.169 5.43709  255 255 255
-378.284 -166.458 -269.79  255 255 255
-383.255 -165.253 -271.938  255 255 255
-395.389 -161.95 -279.977  255 255 255
0.634657 -384.32 137.135  255 255 255
-374.801 -163.632 -269.76  255 255 255
37.7055 -392.107 138.664  255 255 255
-413.372 -146.023 -363.686  255 255 255
-18.2308 -385.364 144.11  255 255 255
-407.663 -150.97 -357.046  255 255 255
-150.534 -323.694 13.7412  255 255 255
-177.303 -348.055 78.0726  255 255 255
-147.887 -346.098 86.1857  255 255 255
-544.301 -147.542 -290.548  255 255 255
-30.891 -380.819 126.737  255 255 255
185.358 -447.16 142.474  255 255 255
-407.923 -183.223 -251.465  255 255 255
-177.32 -317.512 26.1103  255 255 255
-184.062 -327.101 24.4651  255 255 255
-179.016 -342.766 37.1381  255 255 255
-168.13 -340.016 49.5371  255 255 255
-487.97 -178.066 -271.426  255 255 255
-387.196 -237.966 -166.716  255 255 255
-473.416 -203.705 -237.329  255 255 255
-458.879 -198.764 -250.164  255 255 255
192.45 -471.994 143.251  255 255 255
76.3557 -450.265 185.282  255 255 255
-203.961 -348.046 6.14551  255 255 255
-18.0136 -421.002 127.669  255 255 255
-351.922 -255.751 -266.414  255 255 255
-41.9052 -427.732 96.5629  255 255 255
-421.014 -250.912 -211.5  255 255 255
-376.292 -276.519 -139.058  255 255 255
-7.52936 -451.906 127.396  255 255 255
-247.333 -365.53 17.7186  255 255 255
-18.4554 -458.279 138.091  255 255 255
-404.512 -261.208 -264.187  255 255 255
-222.546 -379.735 19.0065  255 255 255
-236.4 -388.177 -6.25338  255 255 255
119.561 -533.589 163.298  255 255 255
-472.265 -303.208 -159.711  255 255 255
-403.971 -328.58 -147.73  255 255 255
-479.532 -330.222 -105.46  255 255 255
-482.955 -328.789 -144.394  255 255 255
92.2982 -579.612 218.07  255 255 255
138.091 -608.257 177.493  255 255 255
149.946 -609.091 171.812  255 255 255
49.1691 -620.344 293.848  255 255 255
50.6249 -617.622 283.123  255 255 255
-290.762 -488.069 11.5136  255 255 255
-40.9046 -577.317 135.411  255 255 255
-43.4514 -584.964 134.953  255 255 255
-28.9473 -595.569 154.569  255 255 255
-52.9764 740.512 -304.346  255 255 255
30.6862 738.49 -306.888  255 255 255
223.194 747.423 -335.7  255 255 255
37.6798 737.805 -307.634  255 255 255
254.426 751.788 -341.262  255 255 255
291.458 763.487 -367.047  255 255 255
207.488 748.825 -347.306  255 255 255
59.2615 737.09 -333.594  255 255 255
161.86 739.596 -357.366  255 255 255
-59.7915 711.767 -316.957  255 255 255
-67.3159 714.264 -322.082  255 255 255
275.877 734.664 -391.008  255 255 255
280.584 730.094 -395.639  255 255 255
283.265 742.952 -396.404  255 255 255
299.372 733.53 -375.849  255 255 255
312.381 750.345 -410.423  255 255 255
169.776 719.588 -368.884  255 255 255
210.602 731.578 -388.214  255 255 255
213.208 724.798 -377.739  255 255 255
-69.8292 697.473 -321.509  255 255 255
-52.635 693.384 -321.925  255 255 255
237.463 727.873 -375.673  255 255 255
-282.842 631.612 -224.381  255 255 255
365.289 731.784 -415.313  255 255 255
66.1197 709.519 -344.734  255 255 255
390.148 497.855 -95.1017  255 255 255
-454.883 658.374 -250.369  255 255 255
-453.889 554.643 -111.047  255 255 255
87.5012 701.841 -355.984  255 255 255
71.872 698.42 -355.173  255 255 255
118.708 705.477 -372.949  255 255 255
470.24 347.296 104.772  255 255 255
-18.1256 685.022 -340.698  255 255 255
-30.2373 688.053 -344.351  255 255 255
317.189 701.956 -393.691  255 255 255
56.8293 688.563 -358.403  255 255 255
-258.848 670.655 -305.84  255 255 255
19.1944 690.175 -353.699  255 255 255
453.216 232.153 228.88  255 255 255
524.201 259.54 150.773  255 255 255
565.349 267.513 156.165  255 255 255
16.4051 687.688 -348.067  255 255 255
177.105 696.37 -382.303  255 255 255
-529.511 644.007 -264.684  255 255 255
-515.763 650.991 -265.726  255 255 255
454.896 196.035 268.532  255 255 255
440.488 227.434 226.122  255 255 255
-80.479 689.201 -339.914  255 255 255
-82.6035 675.105 -335.823  255 255 255
-311.244 656.504 -302.819  255 255 255
94.9936 696.634 -374.902  255 255 255
309.714 68.0924 463.386  255 255 255
521.81 292.935 117.46  255 255 255
85.889 699.065 -370.479  255 255 255
429.105 252.754 195.718  255 255 255
562.136 275.185 144.562  255 255 255
304.775 130.61 373.78  255 255 255
-458.452 642.34 -289.531  255 255 255
-290.927 647.79 -304.571  255 255 255
200.435 716.096 -447.176  255 255 255
204.214 716.197 -445.509  255 255 255
72.439 685.326 -372.589  255 255 255
524.29 338.587 52.749  255 255 255
-468.266 634.571 -283.477  255 255 255
-384.924 648.705 -293.688  255 255 255
-104.758 655.352 -340.054  255 255 255
-74.3313 664.895 -347.653  255 255 255
195.336 686.932 -416.016  255 255 255
92.2625 668.737 -384.134  255 255 255
90.3115 676.266 -384.499  255 255 255
153.515 680.75 -411.534  255 255 255
-520.122 624.464 -274.097  255 255 255
178.044 679.249 -414.169  255 255 255
215.05 699.44 -457.689  255 255 255
156.321 666.184 -408.892  255 255 255
385.113 681.341 -459.053  255 255 255
446.404 397.153 -45.6691  255 255 255
-99.8665 656.733 -361.808  255 255 255
-106.732 648.753 -349.251  255 255 255
-26.7567 653.893 -364.852  255 255 255
495.592 414.577 -86.3217  255 255 255
38.8008 655.834 -379.704  255 255 255
208.998 673.916 -417.568  255 255 255
273.915 663.421 -437.762  255 255 255
-406.489 610.601 -292.104  255 255 255
295.219 671.25 -449.702  255 255 255
371.361 661.455 -461.342  255 255 255
-60.7511 636.344 -376.201  255 255 255
490.993 646.353 -468.149  255 255 255
501.695 662.657 -497.153  255 255 255
260.987 653.265 -448.187  255 255 255
-230.747 620.977 -346.023  255 255 255
-114.121 628.534 -370.935  255 255 255
-113.537 627.768 -375.2  255 255 255
290.783 643.334 -459.857  255 255 255
557.46 227.57 102.696  255 255 255
544.999 224.126 115.465  255 255 255
270.43 639.765 -445.947  255 255 255
281.392 650.271 -456.483  255 255 255
257.39 645.628 -450.847  255 255 255
432.786 651.344 -486.42  255 255 255
-175.99 607.829 -362.16  255 255 255
515.045 637.318 -511.411  255 255 255
-79.5997 618.808 -387.738  255 255 255
-63.4297 628.17 -388.155  255 255 255
278.85 638.545 -467.03  255 255 255
409.769 633.423 -470.903  255 255 255
559.367 636.13 -517.611  255 255 255
460.586 349.053 -44.6315  255 255 255
284.728 638.145 -465.85  255 255 255
315.747 613.967 -448.64  255 255 255
217.981 635.059 -454.607  255 255 255
-46.7044 613.037 -409.775  255 255 255
-370.383 680.76 -451.22  255 255 255
-391.629 584.233 -317.871  255 255 255
308.046 635.909 -481.463  255 255 255
169.116 616.134 -439.189  255 255 255
71.1535 613.223 -433.591  255 255 255
-60.7761 601.697 -403.139  255 255 255
339.314 621.587 -472.593  255 255 255
-356.429 663.758 -439.635  255 255 255
-358.482 582.659 -333.7  255 255 255
-279.266 582.474 -365.185  255 255 255
-85.5508 602.531 -396.874  255 255 255
418.85 381.702 -147.441  255 255 255
456.187 328.326 -72.2281  255 255 255
-498.469 575.503 -322.91  255 255 255
-492.656 562.58 -325.597  255 255 255
-201.8 575.384 -373.384  255 255 255
169.89 603.364 -463.17  255 255 255
-367.175 539.473 -289.771  255 255 255
-351.825 575.453 -357.936  255 255 255
211.138 602.224 -467.053  255 255 255
237.01 628.849 -504.071  255 255 255
-75.3919 593.747 -413.084  255 255 255
-374.537 559.882 -343.453  255 255 255
-165.115 590.292 -391.325  255 255 255
-84.6802 587.607 -416.925  255 255 255
116.425 606.849 -462.576  255 255 255
142.215 595.068 -463.222  255 255 255
-76.8145 603.873 -444.006  255 255 255
-94.9723 582.953 -412.092  255 255 255
-352.07 565.034 -362.736  255 255 255
14.665 582.163 -442.294  255 255 255
135.798 592.891 -479.396  255 255 255
139.515 600.659 -476.138  255 255 255
-139.798 580.253 -408.851  255 255 255
-601.64 520.529 -297.984  255 255 255
-603.606 539.038 -316.365  255 255 255
368.48 597.508 -526.772  255 255 255
360.468 590.869 -515.206  255 255 255
-149.156 571.723 -409.464  255 255 255
68.1593 583.588 -472.261  255 255 255
58.9193 587.03 -458.499  255 255 255
461.564 586.616 -516.787  255 255 255
-603.391 533.012 -294.964  255 255 255
-352.459 563.323 -375.28  255 255 255
518.409 157.603 93.9857  255 255 255
-355.421 554.894 -366.956  255 255 255
472.409 588.482 -555.14  255 255 255
287.811 584.023 -508.809  255 255 255
169.076 596.957 -534.755  255 255 255
152.063 582.148 -476.909  255 255 255
151.812 571.659 -472.703  255 255 255
-585.83 527.401 -313.257  255 255 255
-100.983 560.294 -438.802  255 255 255
-32.0012 569.429 -443.278  255 255 255
313.272 569.479 -512.796  255 255 255
318.3 576.193 -516.019  255 255 255
305.573 575.204 -504.358  255 255 255
374.205 579.09 -525.461  255 255 255
-551.988 528.133 -312.141  255 255 255
-30.8288 564.69 -452.705  255 255 255
540.319 118.634 136.624  255 255 255
165.217 573.39 -495.916  255 255 255
-69.294 558.782 -445.206  255 255 255
423.381 574.094 -542.399  255 255 255
512.461 567.819 -569.56  255 255 255
404.051 575.103 -543.005  255 255 255
501.707 568.377 -577.416  255 255 255
-190.295 549.851 -413.787  255 255 255
-29.8696 557.491 -456.696  255 255 255
-44.8876 546.558 -456.397  255 255 255
416.412 546.074 -514.954  255 255 255
455.13 570.773 -560.011  255 255 255
347.468 565.586 -541.023  255 255 255
328.147 569.349 -547.833  255 255 255
278.225 559.286 -543.336  255 255 255
529.054 145.538 61.8317  255 255 255
541.026 137.258 54.3724  255 255 255
-564.752 508.87 -339.304  255 255 255
454.574 264.71 -118.696  255 255 255
-13.1117 519.479 -474.4  255 255 255
-15.4844 516.707 -480.74  255 255 255
230.771 531.005 -540.554  255 255 255
420.169 297.293 -185.806  255 255 255
-195.259 511.724 -432.131  255 255 255
170.303 520.911 -513.954  255 255 255
-206.881 521.423 -450.792  255 255 255
158.215 525.949 -531.507  255 255 255
264.57 562.64 -617.821  255 255 255
247.067 546.307 -604.033  255 255 255
-636.99 338.562 -109.35  255 255 255
-117.284 504.843 -484.103  255 255 255
-106.414 517.75 -508.577  255 255 255
-259.225 477.787 -443.491  255 255 255
462.574 238.08 -171.784  255 255 255
450.799 255.256 -201.092  255 255 255
-215.279 491.428 -454.931  255 255 255
467.279 135.242 -31.7605  255 255 255
427.199 254.132 -227.41  255 255 255
-433.74 457.719 -406.555  255 255 255
489.861 225.114 -185.166  255 255 255
446.83 163.933 -81.4102  255 255 255
159.492 477.167 -546.838  255 255 255
47.904 471.33 -528.587  255 255 255
192.194 494.483 -588.754  255 255 255
179.921 514.995 -640.518  255 255 255
-537.169 454.054 -382.849  255 255 255
-529.149 458.077 -390.312  255 255 255
-528.729 460.894 -393.935  255 255 255
487.935 213.473 -205.562  255 255 255
-413.466 452.869 -430.854  255 255 255
-411.183 458.569 -423.896  255 255 255
159.678 483.321 -587.67  255 255 255
-247.18 466.036 -464.91  255 255 255
-241.244 463.289 -466.785  255 255 255
55.2395 465.113 -533.981  255 255 255
219.574 477.384 -575.496  255 255 255
332.998 475.709 -623.529  255 255 255
581.989 2.55 114.462  255 255 255
391.179 263.435 -285.845  255 255 255
-187.569 449.196 -486.677  255 255 255
215.129 465.395 -586.476  255 255 255
230.34 470.17 -588.969  255 255 255
-172.929 462.301 -502.432  255 255 255
-174.82 450.419 -504.444  255 255 255
-173.918 461.248 -494.373  255 255 255
-67.8457 455.7 -516.989  255 255 255
409.91 237.606 -252.188  255 255 255
187.909 462.527 -584.42  255 255 255
127.142 466.497 -578.678  255 255 255
411.265 123.053 -45.4595  255 255 255
457.526 127.193 -100.586  255 255 255
213.213 449.878 -596.635  255 255 255
590.213 -19.1492 109.801  255 255 255
61.2035 447.468 -553.73  255 255 255
-408.165 433.342 -450.992  255 255 255
448.855 110.941 -103.157  255 255 255
238.397 430.442 -608.04  255 255 255
58.6904 431.745 -555.807  255 255 255
48.9145 428.74 -574.397  255 255 255
-26.4269 429.814 -549.548  255 255 255
187.735 437.033 -612.074  255 255 255
421.983 205.092 -245.612  255 255 255
427.895 204.867 -274.779  255 255 255
433.68 193.936 -259.16  255 255 255
200.007 419.275 -602.1  255 255 255
458.888 182.69 -248.844  255 255 255
-71.3083 417.383 -560.656  255 255 255
34.1983 407.115 -568.76  255 255 255
-72.2168 409.229 -558.422  255 255 255
-73.0065 417.468 -550.723  255 255 255
541.765 9.86997 0.897221  255 255 255
-249.411 407.651 -512.019  255 255 255
-75.3428 422.566 -587.987  255 255 255
549.905 3.60165 24.4941  255 255 255
453.536 166.008 -264.368  255 255 255
93.3916 -245.847 571.375  255 255 255
-406.93 372.485 -447.081  255 255 255
434.414 140.135 -233.245  255 255 255
-353.612 389.441 -485.163  255 255 255
-232.991 388.446 -530.677  255 255 255
-226.666 390.317 -530.357  255 255 255
577.829 -32.5342 23.4083  255 255 255
-438.39 373.922 -480.374  255 255 255
-37.1112 6.34194 115.13  255 255 255
-58.1089 8.53714 117.27  255 255 255
-467.341 380.924 -462.678  255 255 255
-461.652 371.274 -468.316  255 255 255
-490.78 373.233 -454.909  255 255 255
-446.861 364.982 -474.76  255 255 255
-81.2541 380.901 -590.263  255 255 255
569.697 -47.6122 17.1005  255 255 255
103.517 -57.6734 165.232  255 255 255
-493.021 353.71 -479.52  255 255 255
-340.424 362.348 -511.677  255 255 255
556.891 -41.8079 -5.88918  255 255 255
554.379 -43.8192 -17.6711  255 255 255
-109.569 357.579 -572.095  255 255 255
-77.2278 0.081402 95.1411  255 255 255
576.227 -54.9061 6.00855  255 255 255
-382.289 366.185 -506.065  255 255 255
-51.2705 359.092 -603.773  255 255 255
-49.113 -33.4683 147.842  255 255 255
34.5639 318.844 -584.228  255 255 255
562.386 -89.0343 33.0172  255 255 255
120.134 280.536 -549.642  255 255 255
-88.5706 -25.5342 113.077  255 255 255
559.36 -63.0018 -30.448  255 255 255
-119.861 -12.1542 63.1563  255 255 255
591.629 -115.555 10.6627  255 255 255
-215.398 320.611 -576.25  255 255 255
-123.265 -11.7135 73.243  255 255 255
-188.981 320.162 -599.376  255 255 255
155.462 -128.878 165.239  255 255 255
472.175 -22.2733 -144.368  255 255 255
125.519 -141.05 207.592  255 255 255
-311.196 294.593 -566.11  255 255 255
-28.4419 -114.619 200.899  255 255 255
-40.0832 -119.178 190.574  255 255 255
-122.144 9.82082 -66.8301  255 255 255
-140.714 -35.5671 49.6839  255 255 255
-265.822 271.006 -585.2  255 255 255
507.255 -97.2168 -105.032  255 255 255
18.5022 -160.903 195.927  255 255 255
613.93 -211.556 62.0426  255 255 255
597.631 -211.953 24.3037  255 255 255
151.99 -318.596 456.485  255 255 255
-109.247 -151.26 148.093  255 255 255
111.656 -215.788 197.893  255 255 255
259.796 -220.629 153.171  255 255 255
108.008 -236.019 207.168  255 255 255
570.123 -195.206 -64.7569  255 255 255
-50.765 -178.53 160.35  255 255 255
-228.026 -77.1544 -9.04246  255 255 255
528.009 -171.267 -129.056  255 255 255
532.654 -196.539 -137.414  255 255 255
578.502 -253.1 -54.118  255 255 255
-248.858 -138.071 58.468  255 255 255
537.995 -226.539 -122.177  255 255 255
135.225 -294.65 222.936  255 255 255
-211.03 -161.157 86.6658  255 255 255
187.469 -359.125 367.95  255 255 255
193.514 -372.827 362.139  255 255 255
0.597024 -266.527 200.116  255 255 255
-21.7404 -244.7 198.495  255 255 255
-18.1555 -256.697 191.371  255 255 255
235.507 -355.837 285.4  255 255 255
-225.375 -178.281 63.9996  255 255 255
579.873 -289.312 -62.2868  255 255 255
-207.361 -186.87 90.793  255 255 255
154.629 -314.706 179.081  255 255 255
-242.665 -174.542 19.4379  255 255 255
-175.523 -228.949 143.509  255 255 255
-259.023 -32.7336 -366.285  255 255 255
-259.364 -188.912 32.5314  255 255 255
6.34715 -312.795 208.347  255 255 255
18.9577 -306.168 206.844  255 255 255
550.714 -342.629 -31.2614  255 255 255
-88.6601 -290.247 188.421  255 255 255
-212.896 -241.891 128.335  255 255 255
-107.98 -281.696 185.858  255 255 255
-9.86168 -322.849 212.148  255 255 255
-384.02 -20.8552 -378.819  255 255 255
-82.4639 -293.762 189.679  255 255 255
-278.882 -52.4803 -337.686  255 255 255
-14.0418 -315.375 207.808  255 255 255
-341.486 -50.8595 -349.859  255 255 255
108.938 -337.565 171.081  255 255 255
92.3044 -341.895 207.657  255 255 255
-327.625 -66.2342 -329.237  255 255 255
-152.305 -274.352 122.704  255 255 255
-70.3888 -304.881 173.169  255 255 255
-323.28 -89.0022 -306.849  255 255 255
-203.877 -268.302 96.4119  255 255 255
-176.465 -273.577 80.8042  255 255 255
-312.235 -87.7546 -314.631  255 255 255
-61.1264 -318.43 171.802  255 255 255
-19.1984 -343.795 223.53  255 255 255
-337.697 -111.003 -323.719  255 255 255
83.2918 -358.158 171.68  255 255 255
-221.766 -245.761 48.8082  255 255 255
-71.3805 -319.919 169.882  255 255 255
-62.0633 -326.238 182.519  255 255 255
-564.611 -37.4373 -361.32  255 255 255
-125.146 -297.765 137.738  255 255 255
96.4192 -387.074 197.383  255 255 255
-370.159 -118.946 -305.562  255 255 255
-10.2985 -368.553 209.324  255 255 255
96.0342 -382.659 138.515  255 255 255
-233.694 -267.803 21.7329  255 255 255
-363.901 -131.327 -296.238  255 255 255
-318.502 -165.541 -250.877  255 255 255
-347.372 -140.155 -288.469  255 255 255
-99.4201 -332.215 136.577  255 255 255
-139.731 -298.507 86.5241  255 255 255
-152.287 -306.108 74.4821  255 255 255
200.473 -410.255 125.396  255 255 255
-94.1985 -343.159 123.422  255 255 255
-26.6682 -360.864 153.317  255 255 255
-449.807 -123.038 -303.777  255 255 255
-155.953 -321.023 82.0707  255 255 255
-200.111 -299.298 43.8011  255 255 255
-213.118 -287.555 1.70196  255 255 255
-432.114 -145.105 -280.348  255 255 255
-158.401 -329.803 80.6511  255 255 255
48.0035 -399.567 156.161  255 255 255
32.6541 -400.694 131.885  255 255 255
-72.4535 -365.517 130.673  255 255 255
38.1457 -409.654 166.801  255 255 255
-428.971 -172.425 -265.435  255 255 255
23.0833 -400.714 160.949  255 255 255
-148.363 -353.33 76.6027  255 255 255
-185.554 -345.188 42.2738  255 255 255
-432.804 -203.247 -259.447  255 255 255
-418.074 -206.561 -241.024  255 255 255
-464.95 -184.239 -257  255 255 255
-29.6053 -410.485 142.286  255 255 255
-123.272 -397.467 85.8821  255 255 255
5.23887 -428.271 131.3  255 255 255
-347.924 -241.654 -266.907  255 255 255
-392.747 -251.158 -205.113  255 255 255
-569.608 -197.677 -270.266  255 255 255
-387.454 -277.778 -188.129  255 255 255
-379.05 -286.989 -174.695  255 255 255
114.272 -504.978 152.226  255 255 255
-231.521 -394.083 -9.265  255 255 255
148.94 -551.302 133.034  255 255 255
-489.498 -344.674 -133.569  255 255 255
91.0729 -582.651 216.271  255 255 255
87.7805 -576.247 90.5289  255 255 255
75.7853 -571.4 48.7398  255 255 255
47.9675 -561.297 134.185  255 255 255
114.322 -610.072 197.412  255 255 255
36.6625 -598.834 89.6391  255 255 255
-35.6701 -576.602 132.99  255 255 255
14.1687 -570.505 10.9396  255 255 255
55.569 -621.532 177.782  255 255 255
6.23331 -575.041 38.5511  255 255 255
-28.7097 -591.622 145.875  255 255 255
8.04833 742.048 -301.497  255 255 255
-15.2603 738.344 -304.235  255 255 255
186.013 751.061 -353.625  255 255 255
328.632 751.417 -349.793  255 255 255
173.08 745.845 -345.147  255 255 255
76.4256 729.081 -349.972  255 255 255
328.349 745.427 -385.998  255 255 255
69.2135 735.578 -361.955  255 255 255
56.9963 715.326 -341.443  255 255 255
327.708 752.227 -397.988  255 255 255
314.915 745.327 -395.151  255 255 255
272.814 740.983 -392.99  255 255 255
-49.195 706.518 -329.655  255 255 255
131.605 717.962 -357.788  255 255 255
-94.1504 696.931 -311.171  255 255 255
394.321 506.449 -74.087  255 255 255
215.914 724.802 -379.23  255 255 255
94.3663 714.493 -353.853  255 255 255
-102.861 696.089 -309.651  255 255 255
75.4819 706.893 -354.332  255 255 255
517.552 290.658 169.764  255 255 255
-22.4866 690.332 -337.209  255 255 255
430.525 474.607 -80.0333  255 255 255
-131.566 688.39 -324.243  255 255 255
404.265 495.393 -106.177  255 255 255
473.813 506.564 -135.445  255 255 255
-459.596 648.34 -249.949  255 255 255
-423.408 648.048 -254.082  255 255 255
108.816 703.431 -369.485  255 255 255
133.587 723.181 -403.391  255 255 255
446.898 449.575 -61.5746  255 255 255
-65.1473 684.447 -330.495  255 255 255
-214.097 671.311 -317.179  255 255 255
482.161 331.965 97.6693  255 255 255
525.07 246.601 179.454  255 255 255
-210.123 664.721 -304.762  255 255 255
-46.6881 686.562 -344.093  255 255 255
140.114 694.245 -378.603  255 255 255
578.183 288.468 106.037  255 255 255
187.911 693.74 -390.242  255 255 255
-46.5104 683.887 -361.646  255 255 255
17.1049 673.242 -361.54  255 255 255
108.084 685.252 -379.928  255 255 255
143.243 686.234 -389.101  255 255 255
-62.0454 671.303 -345.948  255 255 255
-186.155 666.381 -332.485  255 255 255
-90.6897 668.193 -339.186  255 255 255
91.9409 684.339 -376.476  255 255 255
544.03 260.221 126.187  255 255 255
-57.3599 664.445 -350.176  255 255 255
-37.9559 673.817 -370.631  255 255 255
-495.549 622.934 -275.882  255 255 255
71.6242 667.119 -390.985  255 255 255
75.6981 669.32 -393.649  255 255 255
-565.066 610.794 -286.641  255 255 255
-467.147 622.277 -298.874  255 255 255
-468.576 619.668 -280.569  255 255 255
-71.0192 659.379 -358.06  255 255 255
-86.8473 648.25 -358.525  255 255 255
335.378 676.702 -436.349  255 255 255
434.251 671.059 -454.506  255 255 255
84.328 671.269 -404.695  255 255 255
184.788 670.587 -418.332  255 255 255
527.924 676.345 -481.372  255 255 255
-221.201 630.038 -327.245  255 255 255
-213.595 634.142 -330.018  255 255 255
-11.6523 672.172 -415.051  255 255 255
404.736 673.121 -462.416  255 255 255
397.489 665.591 -441.423  255 255 255
209.878 654.464 -413.265  255 255 255
206.959 655.795 -414.707  255 255 255
-487.01 620.85 -306.19  255 255 255
264.118 657.784 -438.647  255 255 255
286.359 664.406 -442.944  255 255 255
259.179 664.437 -438.622  255 255 255
252.932 649.762 -431.332  255 255 255
260.027 663.393 -438.51  255 255 255
395.136 669.395 -474.434  255 255 255
-45.1261 637.234 -384.512  255 255 255
-41.9569 636.984 -387.88  255 255 255
214.778 645.897 -446.086  255 255 255
-479.568 590.213 -285.752  255 255 255
-134.234 620.574 -368.054  255 255 255
-176.797 611.968 -367.355  255 255 255
363.349 638.612 -464.298  255 255 255
62.1944 623.834 -420.149  255 255 255
-407.939 598.372 -332.265  255 255 255
-399.749 586.831 -315.25  255 255 255
201.418 628.348 -452.859  255 255 255
285.996 628.503 -468.891  255 255 255
349.872 631.238 -474.487  255 255 255
345.421 626.277 -468.608  255 255 255
-146.948 607.519 -372.234  255 255 255
392.467 352.454 -64.9889  255 255 255
69.4078 627.853 -432.215  255 255 255
67.9298 614.7 -422.274  255 255 255
178.334 615.464 -445.618  255 255 255
-452.204 568.895 -312.671  255 255 255
-457.641 569.198 -311.119  255 255 255
-447.828 572.436 -316.633  255 255 255
198.463 616.756 -468.146  255 255 255
-166.904 591.417 -389.087  255 255 255
465.265 318.234 -40.9927  255 255 255
-178.339 598.224 -376.328  255 255 255
-174.573 594.261 -388.094  255 255 255
-549.462 569.883 -312.582  255 255 255
-63.9678 591.844 -414.551  255 255 255
166.599 612.461 -472.625  255 255 255
-335.55 579.299 -365.204  255 255 255
185.614 606.484 -465.433  255 255 255
-363.291 573.098 -346.969  255 255 255
-357.969 574.004 -362.222  255 255 255
-138.178 589.507 -405.004  255 255 255
523.698 210.707 56.5766  255 255 255
-230.639 577.837 -375.66  255 255 255
-155.043 579.331 -392.809  255 255 255
-318.353 571.042 -371.553  255 255 255
-400.08 565.664 -347.864  255 255 255
329.559 587.68 -492.802  255 255 255
439.398 273.449 -30.3444  255 255 255
-551.928 545.19 -323.183  255 255 255
482.002 208.318 40.3682  255 255 255
329.814 584.189 -501.078  255 255 255
-38.2429 567.585 -444.053  255 255 255
160.408 584.571 -472.633  255 255 255
536.082 154.808 122.135  255 255 255
373.448 346.301 -140.082  255 255 255
-63.9003 576.306 -434.898  255 255 255
-54.7171 575.799 -446.187  255 255 255
-60.3105 567.049 -433.728  255 255 255
-409.13 539.839 -363.959  255 255 255
-408.688 540.879 -369.546  255 255 255
-402.933 551.244 -373.923  255 255 255
-400.265 540.862 -366.089  255 255 255
-479.752 541.12 -350.05  255 255 255
500.578 580.372 -568.98  255 255 255
-202.749 555.461 -412.59  255 255 255
483.12 589.473 -579.611  255 255 255
379.214 361.976 -206.172  255 255 255
-427.983 530.036 -378.757  255 255 255
450.175 558.273 -539.115  255 255 255
233.297 581.468 -554.728  255 255 255
497.771 198.387 -5.94351  255 255 255
192.752 573.735 -548.987  255 255 255
477.209 168.37 7.57925  255 255 255
-425.091 509.47 -376.347  255 255 255
455.891 550.786 -597.655  255 255 255
493.285 180.459 -3.08783  255 255 255
-233.045 549.604 -467.59  255 255 255
-232.001 555.971 -458.614  255 255 255
256.983 537.677 -559.715  255 255 255
411.285 303.37 -213.66  255 255 255
410.721 307.2 -226.524  255 255 255
447.615 213.789 -75.2303  255 255 255
462.674 231.246 -99.316  255 255 255
-216.437 509.702 -432.022  255 255 255
497.237 154.519 -2.31072  255 255 255
-309.178 499.695 -402.049  255 255 255
165.563 512.432 -538.034  255 255 255
136.046 564.996 -607.49  255 255 255
-45.7981 512.782 -513.113  255 255 255
-222.248 492.937 -429.085  255 255 255
535.655 112.788 38.7953  255 255 255
-429.972 482.405 -403.104  255 255 255
-97.2248 495.259 -488.813  255 255 255
111.215 528.236 -585.152  255 255 255
538.646 83.7225 51.649  255 255 255
90.3046 517.982 -570.579  255 255 255
444.147 198.993 -104.095  255 255 255
-406.091 473.31 -409.332  255 255 255
-414.299 467.626 -412.556  255 255 255
-410.177 463.056 -409.511  255 255 255
-409.499 484.124 -425.231  255 255 255
-289.597 470.433 -441.834  255 255 255
214.756 514.143 -600.487  255 255 255
-469.034 466.906 -404.301  255 255 255
400.412 150.891 -31.1676  255 255 255
294.203 511.326 -618.729  255 255 255
-267.105 472.571 -457.476  255 255 255
460.555 264.428 -239.419  255 255 255
-40.6654 493.094 -536.374  255 255 255
448.494 221.159 -183.093  255 255 255
449.321 217.809 -160.313  255 255 255
-209.158 467.024 -475.25  255 255 255
-235.682 465.956 -466.115  255 255 255
517.231 87.2939 -2.32151  255 255 255
448.436 159.454 -90.4275  255 255 255
445.22 209.066 -176.587  255 255 255
444.153 214.917 -172.971  255 255 255
493.719 106.127 -27.566  255 255 255
-528.714 438.951 -401.72  255 255 255
-419.042 443.218 -431.646  255 255 255
395.887 258.591 -288.431  255 255 255
522.192 68.5364 1.94344  255 255 255
450.686 207.08 -241.604  255 255 255
-287.115 444.949 -467.381  255 255 255
442.691 220.38 -255.46  255 255 255
432.503 220.112 -254.863  255 255 255
-191.811 474.627 -556.836  255 255 255
421.471 219.79 -287.017  255 255 255
438.506 200.554 -233.382  255 255 255
-421.97 431.086 -441.792  255 255 255
-182.173 443.119 -516.143  255 255 255
439.862 182.027 -213.02  255 255 255
-58.347 438.506 -535.348  255 255 255
-4.25568 440.789 -556.193  255 255 255
427.112 166.068 -172.076  255 255 255
-244.037 425.287 -487.205  255 255 255
156.439 436.683 -586.708  255 255 255
353.48 430.172 -622.03  255 255 255
-523.141 420.919 -426.203  255 255 255
443.277 173.806 -216.788  255 255 255
459.849 179.021 -228.833  255 255 255
450.249 179.442 -212.312  255 255 255
-248.843 420.384 -497.477  255 255 255
-209.274 417.262 -510.97  255 255 255
-314.58 416.649 -483.506  255 255 255
477.382 66.1941 -63.8737  255 255 255
-157.901 405.087 -498.172  255 255 255
448.325 159.75 -208.831  255 255 255
531.032 28.1698 -16.0735  255 255 255
42.7902 404.153 -568.745  255 255 255
-172.514 409.823 -516.953  255 255 255
476.571 49.2096 -48.0843  255 255 255
-310.866 407.917 -489.779  255 255 255
119.855 -208.986 520.328  255 255 255
115.946 -201.67 520.492  255 255 255
574.051 -19.1703 47.6361  255 255 255
73.9149 24.7471 89.4795  255 255 255
-84.97 388.716 -558.552  255 255 255
-85.5138 397.91 -574.276  255 255 255
-400.897 380.665 -483.488  255 255 255
-100.949 396.569 -573.44  255 255 255
-294.332 387.288 -515.676  255 255 255
-518.134 364.61 -446.351  255 255 255
-418.202 386.205 -474.872  255 255 255
605.332 -104.038 128.218  255 255 255
-465.417 372.986 -461.851  255 255 255
529.169 -11.9421 -12.5237  255 255 255
-23.9088 -18.3559 148.499  255 255 255
-71.8722 10.2376 103.782  255 255 255
511.254 8.85577 -56.9373  255 255 255
-543.255 352.67 -449.703  255 255 255
-184.762 375.618 -562.47  255 255 255
-511.125 361.95 -471.501  255 255 255
-307.708 363.111 -521.989  255 255 255
-19.1241 -16.8035 130.785  255 255 255
50.7446 -61.6149 209.258  255 255 255
-453.295 353.816 -478.845  255 255 255
-52.2221 -17.958 144.796  255 255 255
494.544 -9.1731 -80.1482  255 255 255
-446.446 344.437 -484.229  255 255 255
466.453 -0.797364 -114.144  255 255 255
-68.099 350.733 -608.007  255 255 255
-108.566 7.42801 49.1707  255 255 255
-90.6373 336.596 -601.365  255 255 255
522.234 -55.3131 -34.9016  255 255 255
-87.8496 -28.5398 109.021  255 255 255
-16.1094 -75.1076 181.292  255 255 255
44.9006 -93.7031 198.91  255 255 255
177.794 -286.791 507.293  255 255 255
60.7744 -93.5453 189.532  255 255 255
7.74663 -88.3388 189.195  255 255 255
-289.496 326.672 -559.875  255 255 255
-102.064 -28.3691 100.342  255 255 255
-102.663 -44.1032 102.736  255 255 255
461.855 -5.52558 -142.312  255 255 255
130.002 -280.182 496.759  255 255 255
-295.552 321.773 -550.77  255 255 255
548.446 -95.9384 -35.9363  255 255 255
84.8406 255.265 -558.547  255 255 255
471.066 -25.84 -144.995  255 255 255
-249.994 311.987 -580.992  255 255 255
5.77641 -113.663 192.622  255 255 255
-57.9478 -95.3776 165.79  255 255 255
-110.752 -80.9054 121.807  255 255 255
486.012 -50.92 -143.827  255 255 255
-266.001 295.551 -585.493  255 255 255
473.815 -37.3273 -163.805  255 255 255
-147.535 -52.1809 41.2601  255 255 255
-59.4179 -105.347 180.781  255 255 255
510.254 -101.707 -73.0093  255 255 255
-75.0714 -112.448 163.218  255 255 255
-135.13 -52.5496 71.6361  255 255 255
128.434 -171.487 197.358  255 255 255
122.009 -326.662 527.844  255 255 255
121.839 -322.356 534.505  255 255 255
35.8477 -143.505 203.471  255 255 255
25.7889 -155.405 196.207  255 255 255
-294.475 280.988 -590.027  255 255 255
285.326 -161.496 82.5537  255 255 255
-156.03 -73.2766 67.1322  255 255 255
-151.793 -69.5359 77.6141  255 255 255
555.667 -157.495 -58.015  255 255 255
548.736 -157.191 -62.1738  255 255 255
-205.471 -10.7221 -85.2867  255 255 255
444.45 -188.032 33.0968  255 255 255
447.7 -185.845 35.0052  255 255 255
131.146 -347.861 517.056  255 255 255
584.313 -207.554 -28.7198  255 255 255
528.719 -181.655 -84.1319  255 255 255
565.359 -213.554 -47.6434  255 255 255
515.383 -167.874 -133.757  255 255 255
-223.911 -76.8513 -8.2174  255 255 255
180.085 -325.096 392.909  255 255 255
-200.407 -106.514 50.4309  255 255 255
-37.3499 -193.764 173.164  255 255 255
514.751 -179.568 -154.741  255 255 255
168.462 -254.195 175.259  255 255 255
211.4 -343.087 325.736  255 255 255
512.176 -202.748 -152.304  255 255 255
-248.336 -130.309 30.0752  255 255 255
-233.147 -153.637 57.4163  255 255 255
214.448 -359.691 311.223  255 255 255
-126.958 -224.555 151.819  255 255 255
-12.1975 -256.409 204.041  255 255 255
-7.47104 -261.517 196.533  255 255 255
-229.213 -177.139 74.3904  255 255 255
577.17 -276.997 -62.6601  255 255 255
124.822 -296.767 225.474  255 255 255
582.9 -308.065 -51.0959  255 255 255
585.233 -295.772 -60.0005  255 255 255
-72.7233 -253.721 167.133  255 255 255
588.248 -329.913 -12.3476  255 255 255
94.7915 -310.081 226.485  255 255 255
-213.497 -210.931 117.485  255 255 255
-219.477 -205.431 103.109  255 255 255
-212.479 -212.816 130.429  255 255 255
-169.729 -228.822 130.624  255 255 255
-157.674 -244.273 140.104  255 255 255
-334.462 -5.21324 -378.222  255 255 255
-149.348 -244.483 156.59  255 255 255
-191.801 -230.806 115.596  255 255 255
-126.031 -262.503 176.849  255 255 255
590.585 -341.293 -13.4541  255 255 255
-247.405 -193.87 6.10309  255 255 255
-87.3804 -294.058 193.529  255 255 255
41.2993 -325.464 204.712  255 255 255
146.947 -330.996 159.31  255 255 255
161.076 -325.656 164.158  255 255 255
-191.046 -243.827 109.85  255 255 255
-45.6207 -308.296 200.401  255 255 255
555.344 -359.572 -8.96757  255 255 255
91.6808 -345.171 192.397  255 255 255
-145.806 -264.906 138.141  255 255 255
-301.532 -84.8207 -315.049  255 255 255
-414.596 -60.2587 -346.395  255 255 255
-207.004 -270.312 90.3215  255 255 255
-148.011 -285.658 114.248  255 255 255
-90.4907 -318.963 147.105  255 255 255
-37.5539 -342.541 165.403  255 255 255
35.5854 -347.718 159.605  255 255 255
146.361 -374.034 117.604  255 255 255
-345.283 -124.279 -283.107  255 255 255
-514.565 -77.0145 -336.784  255 255 255
-160.797 -318.578 96.1705  255 255 255
-227.53 -256.788 -27.2054  255 255 255
-215.069 -268.51 16.6721  255 255 255
-224.125 -269.85 4.45547  255 255 255
-25.9955 -368.674 148.803  255 255 255
32.0641 -377.259 143.038  255 255 255
-55.3766 -357.13 150.812  255 255 255
-83.2684 -341.269 132.439  255 255 255
-376.722 -140.945 -354.071  255 255 255
102.524 -403.094 118.447  255 255 255
-195.868 -319.088 37.6047  255 255 255
-548.651 -125.956 -315.998  255 255 255
-172.737 -334.485 60.9831  255 255 255
-70.9009 -389.098 116.662  255 255 255
-158.835 -354.818 87.7044  255 255 255
-428.499 -201.965 -241.24  255 255 255
-438.762 -219.091 -186.026  255 255 255
-7.52336 -417.277 81.1032  255 255 255
-25.0081 -422.118 146.808  255 255 255
-23.3853 -419.092 123.184  255 255 255
-481.239 -224.227 -286.311  255 255 255
-379.413 -274.245 -236.755  255 255 255
-52.8671 -478.564 93.2979  255 255 255
-158.366 -456.5 72.4011  255 255 255
71.036 -567.566 107.561  255 255 255
-344.444 -488.318 17.9927  255 255 255
96.4523 -635.013 206.598  255 255 255
-33.5176 741.181 -284.994  255 255 255
-57.4592 748.013 -312.852  255 255 255
-36.8877 703.314 -321.756  255 255 255
88.2243 717.741 -352.691  255 255 255
357.702 726.856 -389.833  255 255 255
295.652 735.459 -393.063  255 255 255
288.612 738.512 -393.969  255 255 255
450.142 370.385 73.9646  255 255 255
36.156 711.399 -344.034  255 255 255
52.3379 708.321 -341.257  255 255 255
49.6545 703.109 -345.462  255 255 255
-40.839 696.551 -327.184  255 255 255
-100.196 691.061 -319.776  255 255 255
440.507 468.827 -66.736  255 255 255
360.623 714.543 -413.985  255 255 255
453.034 445.565 -45.4898  255 255 255
-473.838 643.921 -258.038  255 255 255
-305.477 672.304 -283.433  255 255 255
381.799 715.521 -427.206  255 255 255
426.059 246.438 214.566  255 255 255
-514.917 642.528 -278.484  255 255 255
-407.066 652.998 -287.694  255 255 255
-388.423 649.28 -281.079  255 255 255
-387.885 648.384 -277.945  255 255 255
453.045 427.194 -64.4764  255 255 255
-379.986 649.738 -293.235  255 255 255
-271.625 659.987 -303.167  255 255 255
-23.8422 679.015 -353.116  255 255 255
4.40686 678.031 -358.224  255 255 255
441.919 423.383 -42.1193  255 255 255
-377.044 645.212 -274.005  255 255 255
-409.38 648.822 -308.368  255 255 255
-14.2519 661.834 -360.597  255 255 255
24.4463 665.48 -366.61  255 255 255
-468.431 627.624 -268.923  255 255 255
-22.7412 666.94 -362.086  255 255 255
-480.478 616.89 -275.589  255 255 255
29.9644 672.477 -375.085  255 255 255
29.4302 672.903 -376.803  255 255 255
-416.735 623.759 -290.402  255 255 255
-449.123 631.289 -304.183  255 255 255
-480.553 621.321 -290.947  255 255 255
-487.201 614.509 -289.829  255 255 255
333.188 663.714 -428.281  255 255 255
250.69 112.611 355.41  255 255 255
-388.888 621.538 -311.302  255 255 255
-346.699 728.504 -465.557  255 255 255
-254.892 636.176 -338.773  255 255 255
-482.035 616.221 -310.233  255 255 255
280.08 660.657 -457.069  255 255 255
261.338 650.614 -454.308  255 255 255
77.8144 659.66 -449.828  255 255 255
63.0591 642.343 -408.972  255 255 255
459.04 348.983 -39.4556  255 255 255
199.242 638.78 -449.066  255 255 255
401.268 265.857 75.3049  255 255 255
413.478 263.867 87.8835  255 255 255
107.669 -19.8381 544.881  255 255 255
-496.719 588.578 -307.326  255 255 255
-140.799 611.86 -377.27  255 255 255
-134.523 616.283 -373.903  255 255 255
283.516 657.804 -513.494  255 255 255
-78.2372 617.722 -392.423  255 255 255
-87.4654 616.522 -394.473  255 255 255
-150.031 601.764 -374.809  255 255 255
-140.931 597.639 -381.325  255 255 255
-143.606 600.358 -387.442  255 255 255
496.118 244.085 45.2369  255 255 255
410.659 204.082 130.152  255 255 255
-287.577 590.767 -350.766  255 255 255
-396.945 572.794 -337.767  255 255 255
-553.159 554.231 -323.886  255 255 255
-235.43 583.316 -370.391  255 255 255
-222.09 571.096 -386.126  255 255 255
429.246 241.588 43.3462  255 255 255
491.161 208.169 67.4817  255 255 255
491.576 202.035 65.1113  255 255 255
-387.501 522.865 -285.953  255 255 255
-389.458 561.213 -362.583  255 255 255
179.65 622.93 -546.131  255 255 255
154.545 608.234 -522.064  255 255 255
149.206 608.106 -514.696  255 255 255
483.926 201.633 49.9745  255 255 255
-448.071 557.817 -371.907  255 255 255
415.911 595.813 -544.611  255 255 255
441.92 553.891 -498.245  255 255 255
-554.201 539.562 -326.126  255 255 255
-567.655 537.294 -337.442  255 255 255
-568.435 534.967 -335.331  255 255 255
-179.87 562.011 -432.518  255 255 255
454.858 279.149 -95.5928  255 255 255
-452.517 541.79 -361.869  255 255 255
-485.678 521.318 -354.064  255 255 255
-437.461 528.625 -382.858  255 255 255
-522.419 512.598 -348.688  255 255 255
-70.4076 544.471 -456.174  255 255 255
-497.793 522.029 -347.791  255 255 255
212.824 544.346 -517.566  255 255 255
-497.488 511.211 -359.137  255 255 255
529.59 137.151 49.6585  255 255 255
404.897 305.459 -186.077  255 255 255
404.661 299.986 -162.262  255 255 255
-46.271 533.406 -466.876  255 255 255
430.113 539.312 -583.705  255 255 255
488.841 539.88 -600.719  255 255 255
431.249 522.463 -565.023  255 255 255
418.367 288.351 -201.385  255 255 255
441.31 193.547 -24.9169  255 255 255
479.364 123.093 41.2376  255 255 255
417.713 292.496 -222.212  255 255 255
436.779 293.771 -208.197  255 255 255
-25.4583 486.855 -494.283  255 255 255
-45.7862 479.12 -505.491  255 255 255
602.696 -9.7804 169.382  255 255 255
122.662 496.921 -586.986  255 255 255
116.86 493.379 -587.159  255 255 255
104.939 472.831 -560.874  255 255 255
461.265 116.588 -46.3212  255 255 255
464.989 77.4211 12.1562  255 255 255
434.16 147.954 -121.622  255 255 255
-542.134 357.244 -294.572  255 255 255
-126.072 473.35 -571.979  255 255 255
245.309 431.181 -604.824  255 255 255
-506.382 422.46 -435.01  255 255 255
220.732 434.568 -602.256  255 255 255
422.31 188.77 -217.805  255 255 255
498.365 65.9419 -26.0085  255 255 255
617.923 -67.7294 136  255 255 255
608.624 -63.4724 131.791  255 255 255
424.245 200.995 -269.264  255 255 255
451.393 112.932 -105.372  255 255 255
517.271 32.023 -9.72924  255 255 255
452.377 163.452 -235.735  255 255 255
-186.643 407.102 -526.672  255 255 255
458.938 84.5008 -97.0747  255 255 255
560.011 -10.1021 28.3022  255 255 255
-494.265 377.016 -439.877  255 255 255
-495.358 374.732 -450.91  255 255 255
456.242 49.8778 -103.294  255 255 255
-84.5615 384.162 -576.698  255 255 255
-518.629 362.873 -445.063  255 255 255
459.816 37.4716 -127.143  255 255 255
454.901 52.488 -122.687  255 255 255
-434.323 377.54 -476.649  255 255 255
535.809 -22.8143 -34.3674  255 255 255
-465.958 344.402 -474.438  255 255 255
157.819 378.123 -706.873  255 255 255
159.824 311.861 -586.601  255 255 255
-124.077 345.074 -562.807  255 255 255
502.935 -13.5429 -66.9836  255 255 255
565.7 -85.984 37.8446  255 255 255
153.343 344.627 -666.113  255 255 255
569.641 -98.116 46.5505  255 255 255
578.591 -97.0861 11.3931  255 255 255
542.588 -56.9226 -31.9503  255 255 255
531.625 -58.2141 -49.0701  255 255 255
-115.98 326.935 -595.29  255 255 255
559.027 -87.5704 -12.9858  255 255 255
557.353 -84.9657 -14.2845  255 255 255
-329.257 329.416 -544.285  255 255 255
-110.387 -15.7285 74.4078  255 255 255
-130.884 -22.3635 72.3732  255 255 255
-78.1981 -38.9396 127.713  255 255 255
95.5953 -125.055 225.488  255 255 255
14.746 270.887 -557.026  255 255 255
553.641 -100.008 -18.3095  255 255 255
534.733 -78.1335 -72.9643  255 255 255
109.095 -294.397 536.966  255 255 255
45.7907 -135.089 213.595  255 255 255
-98.8483 -68.1727 122.961  255 255 255
559.651 -126.253 -3.78112  255 255 255
-117.322 8.87084 -68.06  255 255 255
-111.603 -71.866 125.032  255 255 255
-117.442 -70.7956 109.103  255 255 255
64.8478 -146.856 210.068  255 255 255
78.1348 -162.761 226.084  255 255 255
579.235 -156.575 -7.87534  255 255 255
-111.622 -87.0362 120.012  255 255 255
-114.516 -85.0731 125.147  255 255 255
68.3408 -170.376 189.192  255 255 255
-144.103 -55.1669 42.5296  255 255 255
536.487 -120.166 -82.2275  255 255 255
531.978 -129.942 -53.203  255 255 255
-167.716 8.64885 -106.424  255 255 255
515.821 -136.297 -85.517  255 255 255
-58.4638 -152.078 169.113  255 255 255
-100.512 -131.525 143.446  255 255 255
-78.9416 -138.752 148.477  255 255 255
551.719 -180.655 -62.4895  255 255 255
540.663 -183.708 -59.657  255 255 255
-223.735 -33.3485 -64.5715  255 255 255
578.176 -201.527 -30.1798  255 255 255
-243.15 -53.8889 -29.9255  255 255 255
8.30788 -196.186 197.65  255 255 255
-123.396 -146.638 118.15  255 255 255
-118.425 -136.216 115.339  255 255 255
547.769 -191.427 -78.3332  255 255 255
552.523 -190.181 -91.4752  255 255 255
-222.146 -62.0143 -21.7557  255 255 255
-235.799 -76.6286 -10.6116  255 255 255
-91.0698 -167.683 144.538  255 255 255
-187.513 -111.36 50.044  255 255 255
