ply
format ascii 1.0
element vertex 1255
property float x
property float y
property float z
property uchar red
property uchar green
property uchar blue
end_header
-648.592 577.07 -252.115  255 255 255
-238.502 707.706 -522.999  255 255 255
218.417 842.179 -809.804  255 255 255
226.26 838.938 -806.802  255 255 255
-181.47 740.554 -583.845  255 255 255
237.972 851.232 -822.854  255 255 255
235.466 853.772 -835.81  255 255 255
-543.976 613.269 -331.084  255 255 255
-543.062 616.691 -335.361  255 255 255
-480.54 651.43 -402.24  255 255 255
-475.804 628.784 -380.319  255 255 255
-217.456 716.145 -556.618  255 255 255
201.533 842.125 -795.961  255 255 255
485.736 299.214 15.9788  255 255 255
519.059 117.356 295.684  255 255 255
-3.2488 788.633 -694.875  255 255 255
-2.81745 781.54 -702.604  255 255 255
-451.311 628.792 -403.568  255 255 255
-627.664 559.531 -232.195  255 255 255
-634.731 548.988 -237.518  255 255 255
671.632 921.256 -1028.53  255 255 255
737.147 973.225 -1115.33  255 255 255
764.366 1005.12 -1167.01  255 255 255
73.7222 799.318 -755.624  255 255 255
369.178 880.426 -907.89  255 255 255
519.485 139.257 249.66  255 255 255
536.645 136.685 245.042  255 255 255
-523.4 608.429 -351.234  255 255 255
174.978 -32.85 564.777  255 255 255
485.736 866.537 -936.437  255 255 255
-330.694 664.788 -502.756  255 255 255
717.152 982.345 -1151.25  255 255 255
-527.982 582.147 -350.148  255 255 255
-11.6538 754.606 -718.094  255 255 255
97.2158 759.382 -736.656  255 255 255
652.128 919.683 -1100.26  255 255 255
-559.2 591.88 -375.09  255 255 255
-20.4931 746.078 -716.806  255 255 255
-456.801 603.661 -418.21  255 255 255
579.805 310.923 -106.431  255 255 255
186.332 794.543 -852.111  255 255 255
503.818 277.912 -29.4999  255 255 255
471.663 150.214 162.347  255 255 255
-472.6 603.486 -408.247  255 255 255
-477.016 600.562 -397.201  255 255 255
210.521 841.959 -932.419  255 255 255
-393.491 636.104 -474.268  255 255 255
743.186 921.279 -1163.28  255 255 255
398.464 837.651 -974.375  255 255 255
479.227 152.491 155.475  255 255 255
664.996 878.607 -1104.58  255 255 255
-460.969 583.147 -439.307  255 255 255
-217.96 668.21 -604.885  255 255 255
-630.566 532.041 -285.515  255 255 255
963.82 1025.56 -1434.79  255 255 255
547.541 906.923 -1170.16  255 255 255
445.045 152.347 143.175  255 255 255
496.486 266.634 -56.6714  255 255 255
-241.289 658.117 -579.872  255 255 255
420.203 842.34 -1033.17  255 255 255
492.525 270.544 -37.3392  255 255 255
488.106 338.86 -168.99  255 255 255
-467.203 583.902 -435.686  255 255 255
-627.589 535.286 -308.058  255 255 255
399.825 823.804 -993.489  255 255 255
446.332 293.055 -114.068  255 255 255
-609.041 443.97 -177.514  255 255 255
485.728 325.389 -168.293  255 255 255
-226.651 638.843 -608.364  255 255 255
-470.534 567.659 -438.346  255 255 255
898.387 963.429 -1348.23  255 255 255
445.424 182.341 71.9128  255 255 255
235.702 765.428 -916.232  255 255 255
206.9 765.843 -907.674  255 255 255
500.517 85.1542 210.772  255 255 255
501.781 284.971 -132.291  255 255 255
445.715 157.056 109.603  255 255 255
456.776 219.57 -9.08603  255 255 255
-333.369 597.025 -541.355  255 255 255
447.421 308.508 -165.747  255 255 255
517.733 319.997 -207.537  255 255 255
521.119 332.776 -212.837  255 255 255
-545.501 561.426 -435.876  255 255 255
-552.759 542.278 -396.851  255 255 255
111.639 710.017 -827.448  255 255 255
511.549 266.113 -107.655  255 255 255
-488.263 556.892 -441.871  255 255 255
525.221 279.995 -153.777  255 255 255
467.659 117.254 177.282  255 255 255
500.836 273.859 -138.697  255 255 255
253.28 772.534 -978.945  255 255 255
461.143 245.854 -68.8448  255 255 255
-534.002 544.573 -423.321  255 255 255
-343.187 574.716 -539.246  255 255 255
477.514 248.161 -85.0922  255 255 255
540.562 835.063 -1174.13  255 255 255
322.751 758.085 -971.815  255 255 255
482.113 120.306 116.678  255 255 255
474.177 38.85 276.383  255 255 255
-339.556 574.994 -553.552  255 255 255
538.455 4.17646 320.539  255 255 255
-8.71602 661.612 -797.679  255 255 255
-610.316 516.654 -396.586  255 255 255
-522.74 536.34 -458.485  255 255 255
532.2 762.858 -1104.56  255 255 255
-372.14 567.809 -559.953  255 255 255
442.875 80.3478 161.206  255 255 255
537.114 272.542 -216.944  255 255 255
341.41 712.294 -975.445  255 255 255
-295.035 591.913 -634.988  255 255 255
487.833 214.546 -86.3138  255 255 255
312.887 753.883 -1079.61  255 255 255
516.79 35.6132 216.029  255 255 255
-467.435 519.673 -486.903  255 255 255
-76.2826 638.348 -774.78  255 255 255
239.879 779.808 -1126.77  255 255 255
493.063 93.8439 96.0203  255 255 255
-121.785 621.977 -743.276  255 255 255
-192.2 590.228 -711.037  255 255 255
436.536 280.654 -237.889  255 255 255
270.413 707.819 -1026.59  255 255 255
-573.546 494.067 -458.564  255 255 255
-51.8272 635.761 -838.709  255 255 255
343.841 716.894 -1091.95  255 255 255
-606.014 401.311 -237.301  255 255 255
-206.988 585.765 -712.853  255 255 255
466.355 92.0259 92.5398  255 255 255
492.595 86.9841 60.1016  255 255 255
334.808 710.227 -1107.48  255 255 255
-611.461 474.386 -382.986  255 255 255
-451.003 510.057 -533.913  255 255 255
-625.425 472.585 -416.815  255 255 255
-249.298 558.122 -679.134  255 255 255
559.871 -57.8567 351.31  255 255 255
509.914 51.9801 109.038  255 255 255
493.177 179.236 -123.143  255 255 255
112.032 639.88 -952.102  255 255 255
472.178 233.567 -202.973  255 255 255
-32.0671 633.147 -894.857  255 255 255
480.034 -11.721 246.415  255 255 255
567.014 12.3954 167.955  255 255 255
541.833 -52.9331 293.246  255 255 255
-568.429 477.345 -459.579  255 255 255
565.687 10.0978 170.342  255 255 255
513.927 25.9216 156.659  255 255 255
-8.99557 612.958 -881.645  255 255 255
305.842 682.369 -1102.73  255 255 255
186.752 -142.75 560.674  255 255 255
503.329 99.5038 -0.412514  255 255 255
531.367 11.1405 170.257  255 255 255
446.365 45.3685 126.22  255 255 255
-525.001 468.679 -501.851  255 255 255
506.519 248.115 -334.405  255 255 255
565.828 -4.05456 171.95  255 255 255
-219.928 538.079 -742.678  255 255 255
545.278 14.1467 133.205  255 255 255
-279.83 530.239 -715.907  255 255 255
-273.964 530.775 -716.13  255 255 255
413.779 73.1972 52.6587  255 255 255
494.01 27.1353 122.726  255 255 255
537.17 -15.3387 189.394  255 255 255
573.267 -89.5865 334.096  255 255 255
-567.618 462.38 -493.63  255 255 255
561.711 -50.2059 239.034  255 255 255
-89.866 574.667 -870.105  255 255 255
571.849 -51.1026 232.055  255 255 255
-606.759 449.092 -442.683  255 255 255
-56.7595 583.08 -920.546  255 255 255
141.794 616.148 -1015.52  255 255 255
536.275 -5.8497 147.567  255 255 255
-568.046 447.033 -482.676  255 255 255
535.671 -17.7642 170.294  255 255 255
541.98 -20.2847 162.105  255 255 255
551.238 -45.9425 218.149  255 255 255
-645.797 433.688 -443.671  255 255 255
-489.744 423.111 -479.651  255 255 255
-488.743 466.45 -561.44  255 255 255
578.519 -70.7963 236.146  255 255 255
-621.712 408.95 -412.13  255 255 255
560.639 -109.818 325.813  255 255 255
574.156 -104.509 329.547  255 255 255
537.86 -17.0695 150.856  255 255 255
65.4224 -36.8913 326.946  255 255 255
541.225 -47.7835 209.317  255 255 255
569.468 -106.268 325.411  255 255 255
2.3624 -32.3915 325.152  255 255 255
547.674 -45.4712 213.583  255 255 255
548.038 -58.8908 209.314  255 255 255
-637.76 409.865 -441.53  255 255 255
12.8697 -18.9442 328.094  255 255 255
74.9785 -45.8265 322.059  255 255 255
558.392 164.619 -271.789  255 255 255
-387.802 486.363 -661.247  255 255 255
571.643 -51.9105 166.936  255 255 255
-384.689 484.842 -667.061  255 255 255
549.141 -37.8498 151.529  255 255 255
-412.844 457.425 -625.737  255 255 255
-607.288 418.633 -477.506  255 255 255
-143.406 520.201 -836.096  255 255 255
78.6096 579.269 -1034  255 255 255
-510.252 436.967 -601.816  255 255 255
-84.7311 545.685 -923.251  255 255 255
33.2326 -75.3468 410.45  255 255 255
504.23 14.0795 39.925  255 255 255
-135.078 505.964 -848.57  255 255 255
-512.9 436.488 -574.898  255 255 255
-567.558 422.677 -540.53  255 255 255
-511.835 439.893 -571.828  255 255 255
-392.775 467.781 -686.557  255 255 255
571.926 -135.648 316.237  255 255 255
-527.443 430.049 -562.683  255 255 255
-223.884 486.414 -775.74  255 255 255
25.859 -93.2154 420.953  255 255 255
-140.056 492.591 -840.279  255 255 255
-543.476 413.958 -542.264  255 255 255
-391.814 453.335 -681.524  255 255 255
560.137 -62.758 152.015  255 255 255
-95.0116 -40.3016 303.734  255 255 255
29.1613 -97.1358 407.388  255 255 255
-2.99137 -80.3554 394.829  255 255 255
-0.875174 -91.59 410.378  255 255 255
-37.9428 -71.7019 393.682  255 255 255
520.401 -28.5306 95.8951  255 255 255
-3.21122 -92.762 398.823  255 255 255
-11.4811 -80.374 391.044  255 255 255
553.88 -80.2147 190.109  255 255 255
-564.743 389.079 -532.638  255 255 255
-378.885 447.616 -721.591  255 255 255
-248.38 477.184 -835.577  255 255 255
-569.224 398.14 -537.806  255 255 255
-96.7305 -55.1984 318.778  255 255 255
466.551 23.822 -45.9431  255 255 255
-122.463 -20.1921 258.126  255 255 255
-322.382 455.346 -760.405  255 255 255
539.671 -97.0204 210.89  255 255 255
139.649 -248.071 669.701  255 255 255
127.317 -240.904 677.759  255 255 255
-31.3255 -91.5873 388.712  255 255 255
225.477 421.318 -898.954  255 255 255
-69.6782 -85.5356 366.058  255 255 255
-78.3605 505.261 -985.586  255 255 255
-116.187 -41.1052 315.337  255 255 255
-29.6481 505.978 -1008.7  255 255 255
-39.4377 521.717 -1030.98  255 255 255
-8.14529 511.083 -1031.74  255 255 255
-27.758 -97.9696 393.792  255 255 255
-60.4099 -100.516 382.188  255 255 255
141.453 -236.919 679.437  255 255 255
-61.3613 -96.0972 389.589  255 255 255
186.818 -206.087 546.221  255 255 255
545.635 -110.6 191.351  255 255 255
-511.843 394.324 -606.378  255 255 255
448.64 6.4954 -39.8159  255 255 255
-318.254 445.402 -782.775  255 255 255
587.123 -113.163 184.384  255 255 255
583.593 -125.488 194.967  255 255 255
-100.707 -95.4149 358.515  255 255 255
-73.1092 -106.667 397.374  255 255 255
508.543 -58.7707 80.8671  255 255 255
489.382 1.62644 -71.6312  255 255 255
109.918 393.707 -868.034  255 255 255
512.782 -44.4895 31.6137  255 255 255
153.13 391.363 -894.898  255 255 255
-119.348 -56.8588 291.626  255 255 255
-580.641 371.477 -571.649  255 255 255
497.198 -52.1992 41.0999  255 255 255
-531.078 378.054 -614.502  255 255 255
-405.691 402.85 -747.751  255 255 255
-374.752 409.264 -778.511  255 255 255
-498.197 385.809 -662.136  255 255 255
534.398 -126.912 172.295  255 255 255
548.813 -108.739 124.539  255 255 255
-123.801 -67.8331 299.441  255 255 255
-130.477 -69.8626 308.067  255 255 255
-239.78 427.839 -876.646  255 255 255
-57.0337 -113.902 408.349  255 255 255
-520.56 387.841 -657.6  255 255 255
551.108 -107.395 101.281  255 255 255
512.197 -59.1412 5.63272  255 255 255
536.844 -117.956 149.616  255 255 255
-126.631 -75.3637 331.845  255 255 255
512.093 -41.6544 -37.1721  255 255 255
-293.333 405.462 -845.792  255 255 255
-326.636 406.065 -839.422  255 255 255
-132.282 -104.585 332.913  255 255 255
544.669 -133.387 138.542  255 255 255
170.542 -252.632 601.819  255 255 255
-39.6647 -145.147 401.027  255 255 255
543.449 -103.991 62.2102  255 255 255
-75.5226 -125.083 399.886  255 255 255
29.616 -172.121 438.17  255 255 255
158.624 -267.479 629.324  255 255 255
34.2769 -164.418 436.13  255 255 255
542.995 -132.473 127.253  255 255 255
507.954 -64.1393 -50.4088  255 255 255
-158.125 -43.011 170.241  255 255 255
-6.66686 -160.181 416.037  255 255 255
-550.761 294.91 -621.187  255 255 255
-186.914 -8.45804 71.2447  255 255 255
517.572 -119.641 53.7195  255 255 255
470.764 -131.052 99.295  255 255 255
-149.369 -109.02 328.897  255 255 255
557.273 -132.621 52.6786  255 255 255
-161.571 -58.9266 187.374  255 255 255
546.174 -148.888 80.7358  255 255 255
-52.1024 -158.628 418.779  255 255 255
-66.4132 -162.059 416.88  255 255 255
-424.954 345.415 -809.701  255 255 255
563.558 -162.365 66.297  255 255 255
546.992 -146.957 78.973  255 255 255
-95.8292 -152.504 371.512  255 255 255
-169.465 -74.5216 194.699  255 255 255
51.0012 -190.96 419.73  255 255 255
4.25468 -181.194 427.585  255 255 255
-163.255 -92.1104 275.197  255 255 255
-75.5598 -162.536 399.799  255 255 255
543.373 -134.488 15.6547  255 255 255
207.731 -251.727 501.071  255 255 255
70.2527 -199.203 411.134  255 255 255
69.7088 -195.12 406.61  255 255 255
-198.841 -39.963 113.886  255 255 255
518.24 -130.879 -19.3639  255 255 255
-165.116 -110.649 286.276  255 255 255
-33.8516 -183.358 407.631  255 255 255
-28.8749 -189.671 417.946  255 255 255
34.7412 -199.123 423.594  255 255 255
-153.186 -124.274 287.155  255 255 255
-67.1026 -175.203 401.134  255 255 255
-189.546 -110.568 246.104  255 255 255
-34.225 -190.14 405.326  255 255 255
194.885 -223.222 371.1  255 255 255
45.9358 -204.516 408.642  255 255 255
41.9988 -200.503 408.75  255 255 255
-152.741 -142.887 318.905  255 255 255
-155.153 -142.097 313.326  255 255 255
23.251 -205.956 402.167  255 255 255
574.287 -209.916 83.9268  255 255 255
551.674 -211.473 105.573  255 255 255
-72.2151 -182.215 394.912  255 255 255
560.244 -203.988 88.1162  255 255 255
-135.777 -139.661 304.655  255 255 255
-149.378 -149.429 305.86  255 255 255
-51.6318 -192.267 396.015  255 255 255
-24.1034 -205.13 406.979  255 255 255
62.6474 -219.66 403.36  255 255 255
43.543 -217.183 405.476  255 255 255
-633.789 255.204 -685.029  255 255 255
-165.63 -148.408 312.369  255 255 255
-247.375 -96.9764 195.298  255 255 255
-233.359 -95.3301 193.073  255 255 255
561.979 -208.161 27.0455  255 255 255
78.5357 -236.42 415.098  255 255 255
106.766 -241.649 392.372  255 255 255
195.031 -300.153 508.688  255 255 255
-219.707 -125.554 229.003  255 255 255
-187.822 -162.189 287.894  255 255 255
580.05 -240.85 86.0922  255 255 255
-12.9394 -238.81 424.802  255 255 255
2.60584 -228.062 419.579  255 255 255
-176.063 -153.772 294.12  255 255 255
-146.719 -190.459 350.584  255 255 255
614.191 -267.954 158.891  255 255 255
582.405 -251.833 89.5105  255 255 255
575.393 -243.677 -1.32394  255 255 255
500.709 -225.795 78.8538  255 255 255
-244.524 -149.872 255.007  255 255 255
600.349 -271.254 90.2819  255 255 255
-240.509 -142.353 244.598  255 255 255
-235.859 50.9729 -422.786  255 255 255
-134.461 -208.713 357.547  255 255 255
195.52 -319.475 508.76  255 255 255
-125.257 -220.497 377.804  255 255 255
-56.9235 -245.508 412.163  255 255 255
-141.528 -219.665 368.987  255 255 255
586.697 -283.134 81.6323  255 255 255
128.593 -281.365 422.948  255 255 255
-195.995 -178.975 301.551  255 255 255
-237.508 -176.255 292.571  255 255 255
-151.381 -218.804 355.253  255 255 255
-150.521 -223.376 358.01  255 255 255
-109.875 -231.706 397.909  255 255 255
591.801 -289.918 78.7112  255 255 255
-154.805 -210.249 357.591  255 255 255
71.8045 -287.81 414.788  255 255 255
586.911 -284.4 70.3002  255 255 255
-149.51 -215.017 360.397  255 255 255
-165.499 -201.834 351.006  255 255 255
122.983 -306.393 422.443  255 255 255
-128.629 -225.294 371.584  255 255 255
-57.1136 -258.35 415.324  255 255 255
-28.9365 -262.543 417.975  255 255 255
47.0886 -295.729 448.312  255 255 255
113.127 -291.293 409.104  255 255 255
-222.278 -193.135 305.017  255 255 255
-181.873 -212.45 339.426  255 255 255
-104.213 -237.905 387.593  255 255 255
-104.092 -247.041 395.875  255 255 255
181.684 -348.086 542.307  255 255 255
108.807 -297.643 416.938  255 255 255
599.295 -314.052 104.34  255 255 255
594.931 -324.191 111.135  255 255 255
-238.598 -185.87 275.401  255 255 255
-554.598 35.6399 -360.788  255 255 255
-300.484 -20.4993 -349.673  255 255 255
43.8867 -286.34 429.338  255 255 255
124.815 -288.592 406.716  255 255 255
131.332 -297.699 394.004  255 255 255
184.572 -352.741 527.655  255 255 255
608.014 -339.014 155.636  255 255 255
-177.809 -235.372 373.222  255 255 255
-218.273 -216.695 316.875  255 255 255
-185.418 -233.036 369.835  255 255 255
-221.532 -212.488 305.717  255 255 255
-222.565 -216.241 303.176  255 255 255
-180.721 -245.273 383.398  255 255 255
-282.782 -52.8703 -285.064  255 255 255
609.442 -342.069 137.064  255 255 255
20.5947 -294.618 442.674  255 255 255
62.097 -307.656 436.953  255 255 255
-5.92971 -296.98 448.898  255 255 255
-208.091 -208.708 298.213  255 255 255
-187.951 -246.72 346.574  255 255 255
-194.331 -247.896 348.41  255 255 255
-131.597 -272.138 417.577  255 255 255
-113.7 -287.725 438.321  255 255 255
4.3556 -313.483 440.075  255 255 255
-438.412 -39.9409 -292.867  255 255 255
-13.5926 -302.591 435.583  255 255 255
559.737 -373.31 166.53  255 255 255
-92.8981 -283.414 420.895  255 255 255
-75.645 -296.621 421.14  255 255 255
-339.506 -139.726 -56.4982  255 255 255
-363.37 -140.753 -42.8331  255 255 255
37.9813 -325.368 410.629  255 255 255
-98.8537 -295.513 408.357  255 255 255
-23.8812 -312.411 446.543  255 255 255
52.4993 -338.133 407.697  255 255 255
-33.7675 -331.82 450.901  255 255 255
-161.762 -283.994 364.534  255 255 255
-370.402 -114.813 -193.501  255 255 255
122.489 -350.601 361.934  255 255 255
-374.1 -166.711 -18.3756  255 255 255
-158.93 -282.292 354.692  255 255 255
113.802 -354.297 352.311  255 255 255
-204.962 -269.709 278.256  255 255 255
107.016 -354.858 375.754  255 255 255
-415.754 -138.481 -162.115  255 255 255
-617.114 -69.1384 -231.558  255 255 255
-454.316 -130.717 -181.538  255 255 255
-373.146 -177.366 7.84977  255 255 255
-193.08 -289.585 307.13  255 255 255
-154.093 -304.743 359.811  255 255 255
-134.163 -320.409 392.286  255 255 255
-43.5617 -335.647 403.895  255 255 255
89.4136 -357.989 364.854  255 255 255
-39.7164 -340.539 407.612  255 255 255
49.3296 -371.792 395.819  255 255 255
-189.406 -294.998 307.774  255 255 255
-193.998 -295.289 319.441  255 255 255
-51.7289 -345.689 399.427  255 255 255
61.0954 -361.867 388.562  255 255 255
84.5394 -368.698 355.668  255 255 255
131.381 -373.434 321.528  255 255 255
121.649 -373.138 333.658  255 255 255
-451.711 -160.094 -137.009  255 255 255
-409.08 -193.652 24.6559  255 255 255
-390.654 -182.8 -44.3793  255 255 255
18.87 -371.801 398.976  255 255 255
-387.188 -172.171 -125.785  255 255 255
-27.9518 -351.073 392.979  255 255 255
-108.291 -334.348 354.974  255 255 255
-71.9499 -357.709 379.318  255 255 255
-53.1023 -361.361 390.689  255 255 255
-165.095 -326.536 319.512  255 255 255
-51.2765 -359.653 388.265  255 255 255
-48.4819 -363.536 369.638  255 255 255
-38.8739 -364.301 380.542  255 255 255
-479.179 -182.046 -85.3479  255 255 255
-478.939 -190.802 -81.3737  255 255 255
-165.215 -327.572 322.541  255 255 255
-160.714 -335.287 336.413  255 255 255
-149.202 -328.04 325.293  255 255 255
-155.185 -329.855 331.619  255 255 255
-6.70452 -378.592 377.396  255 255 255
-161.386 -331.773 335.084  255 255 255
-91.9731 -355.323 371.362  255 255 255
-183.514 -321.828 274.856  255 255 255
-9.08756 -392.902 374.93  255 255 255
-116.308 -347.836 344.21  255 255 255
-171.286 -335.94 289.394  255 255 255
-176.331 -338.066 300.791  255 255 255
-87.425 -371.496 361.215  255 255 255
-540.646 -208.024 -7.88819  255 255 255
-189.469 -332.143 270.314  255 255 255
-188.16 -341.518 267.086  255 255 255
-181.636 -337.661 275.247  255 255 255
-299.252 -298.094 81.5559  255 255 255
-36.298 -388.318 369.773  255 255 255
-129.23 -373.935 341.569  255 255 255
-383.106 -285.812 41.0103  255 255 255
-284.714 -330.56 157.019  255 255 255
-383.603 -311.794 81.4108  255 255 255
-213.643 -376.046 274.881  255 255 255
-205.473 -388.961 262.876  255 255 255
-389.45 -325.884 75.1875  255 255 255
-58.5098 -436.721 385.563  255 255 255
-205.795 -379.798 250.246  255 255 255
-235.529 -397.061 263.154  255 255 255
-90.1134 -449.576 349.298  255 255 255
-416.484 -343.819 133.949  255 255 255
-148.031 -427.206 339.968  255 255 255
-148.644 -420.364 337.992  255 255 255
-149.921 -428.137 316.117  255 255 255
-226.619 -400.211 227.536  255 255 255
-490.941 -349.368 124.584  255 255 255
53.7242 -520.945 470.312  255 255 255
138.269 -566.265 416.538  255 255 255
138.652 -558.837 421.461  255 255 255
143.429 -562.405 436.309  255 255 255
27.9791 -529.028 395.656  255 255 255
38.2222 -544.059 460.564  255 255 255
-97.5292 -497.616 365.549  255 255 255
24.3977 -543.819 358.26  255 255 255
5.02292 -559.822 370.554  255 255 255
-145.905 -491.884 353.111  255 255 255
11.7265 -554.031 402.9  255 255 255
-125.174 -512.983 375.594  255 255 255
-100.699 -522.317 388.447  255 255 255
-98.8883 -518.644 398.309  255 255 255
168.114 1045.35 -521.255  255 255 255
160.218 1059.53 -577.487  255 255 255
80.8241 1019.49 -526.571  255 255 255
67.6952 1024.65 -519.6  255 255 255
137.362 1035.77 -557.516  255 255 255
166.845 1053.02 -570.582  255 255 255
149.413 1048.34 -577.284  255 255 255
299.74 1093.35 -645.794  255 255 255
408.388 1116.02 -679.439  255 255 255
435.094 1111.29 -655.473  255 255 255
317.873 1080.58 -626.885  255 255 255
296.041 1078.96 -645.375  255 255 255
465.464 1161 -767.192  255 255 255
741.056 1265.5 -913.065  255 255 255
109.032 1019.22 -566.787  255 255 255
573.539 1186.09 -780.037  255 255 255
602.039 1223.86 -839.875  255 255 255
482.192 1176.76 -787.703  255 255 255
474.785 1172.11 -783.381  255 255 255
135.582 1033.04 -581.371  255 255 255
136.571 1027.27 -570.093  255 255 255
131.105 1030.68 -611  255 255 255
355.835 1110.39 -700.164  255 255 255
140.845 1008.1 -577.334  255 255 255
719.097 1222.47 -886.669  255 255 255
607.9 1193.85 -860.077  255 255 255
369.351 498.093 49.066  255 255 255
440.302 537.866 2.90754  255 255 255
650.064 1210.68 -881.509  255 255 255
411.711 465.602 108.544  255 255 255
-235.376 844.396 -365.741  255 255 255
427.006 1119.36 -755.588  255 255 255
504.233 558.02 -27.5511  255 255 255
229.334 1029.89 -632.148  255 255 255
-94.7631 914.195 -460.575  255 255 255
57.0291 967.514 -537.834  255 255 255
433.203 347.733 220.612  255 255 255
-104.549 907.347 -448.733  255 255 255
233.47 1028.41 -636.746  255 255 255
469.636 566.879 -61.9063  255 255 255
32.2702 948.423 -545.437  255 255 255
112.034 987.151 -600.386  255 255 255
28.4723 976.749 -558.783  255 255 255
275.286 1044.43 -684.573  255 255 255
201.134 1020.63 -630.952  255 255 255
-293.966 839.028 -364.613  255 255 255
484.529 296.928 281.909  255 255 255
-618.07 679.994 -142.879  255 255 255
578.88 1156.18 -863.924  255 255 255
-315.746 819.967 -356.401  255 255 255
-67.3722 913.038 -497.309  255 255 255
-72.4799 914.433 -491.892  255 255 255
-329.785 825.282 -358.663  255 255 255
219.074 135.044 496.604  255 255 255
3.55802 946.425 -552.476  255 255 255
181.943 111.358 545.138  255 255 255
200.798 987.174 -632.462  255 255 255
312.609 211.879 386.412  255 255 255
582.087 476.686 20.8199  255 255 255
-105.975 881.635 -470.781  255 255 255
-55.3054 891.93 -493.041  255 255 255
484.541 315.349 243.588  255 255 255
-340.411 807.153 -331.856  255 255 255
499.14 273.525 288.834  255 255 255
-14.8495 928.889 -545.483  255 255 255
-122.695 869.471 -465.3  255 255 255
765.745 1187.89 -960.172  255 255 255
489.969 313.707 235.984  255 255 255
509.017 274.957 285.528  255 255 255
74.0821 951.209 -613.245  255 255 255
668.213 1157.7 -910.123  255 255 255
364.375 156.586 445.06  255 255 255
-561.88 717.818 -218.623  255 255 255
505.32 275.326 292.782  255 255 255
119.247 -4.04761 677.879  255 255 255
120.727 12.2353 675.936  255 255 255
538.595 1066.27 -782.02  255 255 255
157.769 982.42 -647.143  255 255 255
464.784 535.333 -80.6676  255 255 255
19.1596 917.084 -566.303  255 255 255
524.539 265.927 286.493  255 255 255
109.72 -5.1208 686.758  255 255 255
264.455 996.978 -709.432  255 255 255
66.0168 -68.2226 777.429  255 255 255
562.081 1078.21 -856.834  255 255 255
86.1237 -41.8817 730.223  255 255 255
-102.52 864.79 -498.87  255 255 255
-608.061 685.09 -198.766  255 255 255
-598.403 677.35 -197.955  255 255 255
-118.185 853.413 -492.668  255 255 255
-111.863 863.559 -501.905  255 255 255
746.712 1128.36 -960.015  255 255 255
695.208 1135.86 -962.096  255 255 255
-70.2303 875.898 -541.829  255 255 255
754.628 1144.54 -984.62  255 255 255
999.672 1143.73 -1023.54  255 255 255
538.569 1080.98 -890.139  255 255 255
479.706 1043.12 -846.653  255 255 255
455.311 295.968 206.523  255 255 255
482.769 404.33 47.5877  255 255 255
559.37 264.625 236.028  255 255 255
558.531 265.078 226.626  255 255 255
-568.303 682.189 -243.551  255 255 255
457.564 973.675 -762.023  255 255 255
479.425 1092.83 -948.801  255 255 255
183.998 934.037 -699.787  255 255 255
620.782 1063.11 -934.046  255 255 255
482.313 1029.62 -877.755  255 255 255
-325.579 754.475 -385.703  255 255 255
271.809 954.169 -737.755  255 255 255
-214.435 796.408 -481.266  255 255 255
-2.39526 852.014 -606.484  255 255 255
265.424 935.877 -753.391  255 255 255
588.793 1011.36 -872.486  255 255 255
557.414 967.24 -837.819  255 255 255
589.716 987.877 -845.079  255 255 255
876.906 1218.71 -1238.66  255 255 255
-569.392 654.459 -256.412  255 255 255
380.348 937.423 -822.433  255 255 255
362.292 930.562 -785.488  255 255 255
130.406 895.922 -703.403  255 255 255
126.754 888.12 -680.354  255 255 255
-383.177 722.387 -404.159  255 255 255
386.391 934.267 -807.968  255 255 255
826.827 968.887 -897.276  255 255 255
444.848 278.059 185.503  255 255 255
376.974 959.581 -851.201  255 255 255
560.882 378.444 -10.8773  255 255 255
208.776 947.561 -805.798  255 255 255
457.056 452.494 -77.6886  255 255 255
-18.1481 843.621 -619.851  255 255 255
-587.833 628.372 -253.069  255 255 255
-478.549 677.281 -338.934  255 255 255
-387.514 695.279 -366.514  255 255 255
468.038 961.353 -860.58  255 255 255
400.872 953.73 -856.415  255 255 255
-563.391 642.683 -266.542  255 255 255
-390.5 683.859 -366.784  255 255 255
501.595 990.464 -911.626  255 255 255
269.498 901.082 -786.779  255 255 255
345.243 945.627 -853.037  255 255 255
-178.356 775.826 -525.378  255 255 255
535.501 442.227 -144.246  255 255 255
703.462 1063.17 -1097.71  255 255 255
965.198 1015.37 -1037.24  255 255 255
-452.516 669.702 -337.07  255 255 255
425.832 378.839 -31.903  255 255 255
442.375 328.33 36.1812  255 255 255
350.134 924.059 -848.085  255 255 255
305.836 893.156 -810.489  255 255 255
613.51 998.413 -982.61  255 255 255
490.843 331.288 31.5041  255 255 255
678.849 950.762 -938.722  255 255 255
-436.657 683.734 -389.292  255 255 255
491.555 898.03 -839.062  255 255 255
-453.673 676.916 -383.308  255 255 255
-457.789 604.199 -286.184  255 255 255
-41.6546 796.126 -630.415  255 255 255
-136.33 770.398 -575.549  255 255 255
-581.381 614.81 -273.35  255 255 255
-416.245 662.852 -402.444  255 255 255
-415.228 646.243 -384.607  255 255 255
744.393 960.858 -980.455  255 255 255
641.504 988.139 -1006.33  255 255 255
172.085 838.19 -730.786  255 255 255
-322.827 695.149 -449.816  255 255 255
233.212 869.144 -793.582  255 255 255
-635.1 582.775 -231.124  255 255 255
198.596 847.483 -765.88  255 255 255
-260.099 719.449 -490.117  255 255 255
472.458 897.516 -873.028  255 255 255
487.196 897.165 -882.84  255 255 255
-462.05 660.763 -387.683  255 255 255
718.273 1049.09 -1145.46  255 255 255
-614.932 493.555 -111.198  255 255 255
473.041 116.186 314.404  255 255 255
693.761 1033.46 -1173.01  255 255 255
606.07 955.087 -1004.42  255 255 255
480.816 157.153 255.658  255 255 255
-214.658 712.224 -532.191  255 255 255
843.152 984.508 -1089.18  255 255 255
487.492 219.883 133.948  255 255 255
-207.946 719.351 -554.373  255 255 255
-471.177 621.195 -364.299  255 255 255
779.762 970.025 -1072.98  255 255 255
-60.5683 763.32 -653.321  255 255 255
-78.061 759.353 -645.351  255 255 255
491.294 306.432 2.48013  255 255 255
-447.166 644.176 -391.933  255 255 255
-455.983 644.962 -406.037  255 255 255
449.856 234.35 122.643  255 255 255
444.016 230.715 124.667  255 255 255
344.42 929.333 -972.32  255 255 255
57.2123 786.608 -692.9  255 255 255
46.1934 790.025 -709.46  255 255 255
25.6635 786.016 -688.416  255 255 255
-539.916 605.112 -332.764  255 255 255
24.3366 777.357 -703.182  255 255 255
3.96074 761.662 -656.369  255 255 255
4.93688 773.706 -699.708  255 255 255
4.16216 784.325 -698.185  255 255 255
-381.381 640.962 -440.35  255 255 255
-617.371 580.099 -272.238  255 255 255
17.8405 771.41 -700.569  255 255 255
592.045 924.342 -1034.72  255 255 255
567.833 921.624 -1029.11  255 255 255
354.185 827.269 -877.896  255 255 255
386.893 866.308 -960.579  255 255 255
702.651 940.956 -1122.78  255 255 255
777.714 927.849 -1121.12  255 255 255
787.163 927.444 -1123.63  255 255 255
787.833 925.54 -1112.2  255 255 255
328.426 829.64 -890.708  255 255 255
907.544 1060.38 -1371.67  255 255 255
-285.938 656.046 -532.062  255 255 255
-581.678 562.81 -315.512  255 255 255
501.341 126.81 224.493  255 255 255
465.285 172.179 139.353  255 255 255
719.273 909.972 -1142.92  255 255 255
652.445 900.421 -1115.23  255 255 255
596.858 845.493 -1049.34  255 255 255
528.169 813.903 -974.892  255 255 255
494.367 252.384 -35.7242  255 255 255
497.983 70.7279 268.815  255 255 255
212.789 775.527 -916.731  255 255 255
797.093 885.678 -1203.86  255 255 255
515.335 105.654 180.07  255 255 255
481.807 300.185 -186.008  255 255 255
-242.976 640.73 -612.606  255 255 255
532.476 295.418 -148.65  255 255 255
426.889 160.213 85.8919  255 255 255
447.98 240.196 -79.6959  255 255 255
3.36327 702.93 -792.802  255 255 255
-53.3512 671.965 -757.854  255 255 255
164.416 722.728 -914.618  255 255 255
-479.082 535.234 -454.195  255 255 255
-2.62002 709.297 -846.005  255 255 255
511.866 249.8 -118.438  255 255 255
179.815 716.599 -920.954  255 255 255
9.44523 684.835 -830.207  255 255 255
169.645 715.322 -945.318  255 255 255
520.43 230.249 -158.336  255 255 255
528.428 59.3762 191.268  255 255 255
470.933 132.052 49.2203  255 255 255
492.324 144.366 10.862  255 255 255
-204.136 588.29 -693.292  255 255 255
466.665 258.772 -214.974  255 255 255
534.769 68.9006 121.49  255 255 255
519.213 66.953 124.08  255 255 255
511.552 41.8226 154.429  255 255 255
-325.808 558.031 -625.524  255 255 255
-596.648 480.447 -436.302  255 255 255
614.94 767.866 -1246.15  255 255 255
471.25 122.909 22.402  255 255 255
143.006 678.287 -972.947  255 255 255
552.362 19.9311 189.771  255 255 255
548.476 -31.0312 287.272  255 255 255
-490.417 495.132 -503.302  255 255 255
541.56 7.87506 179.978  255 255 255
81.806 635.909 -961.518  255 255 255
497.562 3.02352 213.652  255 255 255
363.664 -70.0694 376.607  255 255 255
-621.315 458.417 -418.575  255 255 255
498.684 217.387 -251.578  255 255 255
-411.907 510.789 -597.686  255 255 255
-414.502 514.001 -606.204  255 255 255
538.427 1.35338 160.819  255 255 255
440.917 90.081 -4.38752  255 255 255
-526.261 469.38 -502.716  255 255 255
276.488 647.438 -1088.02  255 255 255
575.636 -23.0742 187.346  255 255 255
-113.194 553.723 -834.236  255 255 255
568.792 -102.325 337.63  255 255 255
158.859 -168.785 591.112  255 255 255
524.425 -19.5138 169.975  255 255 255
10.325 -11.0288 308.468  255 255 255
495.316 34.0377 44.1763  255 255 255
-145.627 544.183 -870.958  255 255 255
560.42 -59.1713 222.786  255 255 255
-592.786 434.95 -494.363  255 255 255
485.317 14.7399 92.6457  255 255 255
-58.3015 567.569 -926.868  255 255 255
-505.428 456.658 -580.38  255 255 255
-225.775 488.971 -793.846  255 255 255
63.4786 -83.1283 383.265  255 255 255
-585.066 433.695 -507.369  255 255 255
-542.364 412.841 -528.51  255 255 255
-550.763 425.383 -509.308  255 255 255
510.388 1.88998 77.9731  255 255 255
518.023 -3.04016 65.5705  255 255 255
67.6625 -91.925 386.426  255 255 255
-125.024 510.379 -843.31  255 255 255
548.1 -47.3574 149.138  255 255 255
-643.384 405.456 -442.696  255 255 255
564.655 -108.9 265.578  255 255 255
35.4445 -86.5296 398.47  255 255 255
-480.554 383.62 -510.841  255 255 255
75.012 555.78 -1046.27  255 255 255
-93.6438 -20.9817 267.696  255 255 255
-574.246 412.648 -541.388  255 255 255
532.531 -42.2675 95.953  255 255 255
-34.6277 529.39 -991.2  255 255 255
-31.3621 -69.3231 382.486  255 255 255
-635.313 374.368 -455.336  255 255 255
-104.394 -14.0979 276.565  255 255 255
-74.1842 521.428 -977.628  255 255 255
219.889 452.143 -950.456  255 255 255
-548.055 406.421 -591.091  255 255 255
489.923 -31.3165 57.7316  255 255 255
-23.141 -99.334 420.426  255 255 255
477.134 34.1669 -102.56  255 255 255
461.318 -68.3235 133.662  255 255 255
-100.361 -66.5787 333.483  255 255 255
573.371 -99.9535 163.75  255 255 255
48.2147 -123.733 422.157  255 255 255
-78.8672 -87.8742 372.38  255 255 255
-105.604 472.002 -942.168  255 255 255
-107.347 -77.3832 341.652  255 255 255
-98.1063 -89.3864 361.835  255 255 255
102.572 405.116 -889.491  255 255 255
-75.6418 472.142 -988.633  255 255 255
537.709 -90.7848 130.912  255 255 255
528.861 -94.4724 132.295  255 255 255
-12.6989 -130.656 419.221  255 255 255
-134.814 463.831 -992.48  255 255 255
-521.795 352.437 -543.354  255 255 255
101.993 -136.159 398.22  255 255 255
-145.472 -56.6637 290.869  255 255 255
-573.818 368.371 -610.275  255 255 255
-520.252 372.458 -656.086  255 255 255
-513.614 366.094 -654.846  255 255 255
-489.833 382.1 -686.099  255 255 255
-221.688 412.721 -916.996  255 255 255
-544.799 361.261 -638.746  255 255 255
-232.204 437.744 -924.671  255 255 255
32.0357 333.619 -761.562  255 255 255
38.6802 -155.198 437.329  255 255 255
-35.9971 -140.508 400.618  255 255 255
544.236 -112.807 120.126  255 255 255
598.12 -173.22 161.723  255 255 255
120.677 383.481 -1008.23  255 255 255
549.846 -139.276 123.784  255 255 255
-76.3879 -129.368 387.772  255 255 255
-15.3299 -158.352 424.017  255 255 255
545.602 -128.53 111.992  255 255 255
-279.36 392.795 -903.859  255 255 255
189.086 -245.438 552.14  255 255 255
-97.0012 -117.784 365.579  255 255 255
-152.32 -89.5068 273.927  255 255 255
576.684 -132.031 94.038  255 255 255
-75.8736 -140.413 393.474  255 255 255
105.604 -187.392 384.185  255 255 255
549.696 -164.536 125.147  255 255 255
579.861 -169.793 149.334  255 255 255
581.226 -181.762 147.424  255 255 255
-349.142 357.654 -820.838  255 255 255
601.033 -191.473 139.909  255 255 255
-126.659 -134.051 351.613  255 255 255
555.202 -141.033 7.98605  255 255 255
-119.348 -113.228 269.226  255 255 255
-9.9507 -172.427 426.455  255 255 255
-162.157 -73.8709 209.12  255 255 255
-66.8949 -169.53 403.408  255 255 255
-228.663 -49.2726 118.497  255 255 255
599.053 -196.466 120.68  255 255 255
-196.147 -92.8929 231.609  255 255 255
-194.286 -99.133 231.429  255 255 255
34.0752 -201.196 412.352  255 255 255
575.212 -217.562 143.893  255 255 255
-111.382 -152.854 359.556  255 255 255
-184.262 -117.691 253.12  255 255 255
-109.529 -167.045 366.713  255 255 255
5.83336 -210.8 427.939  255 255 255
47.9001 -210.212 410.9  255 255 255
-182.099 -127.502 280.242  255 255 255
187.559 -287.951 534.197  255 255 255
604.961 -221.828 90.4726  255 255 255
592.326 -222.039 96.4816  255 255 255
32.7545 -214.648 411.015  255 255 255
53.5283 -231.344 441.374  255 255 255
171.217 -309.009 579.499  255 255 255
-246.299 -108.387 193.689  255 255 255
-197.939 -145.156 282.864  255 255 255
592.172 -264.116 182.299  255 255 255
-210.991 73.2564 -477.737  255 255 255
-157.684 -177.272 339.207  255 255 255
538.561 -193.701 -47.1694  255 255 255
-27.6206 -231.937 403.282  255 255 255
177.961 -321.745 547.817  255 255 255
-138.343 -203.885 378.835  255 255 255
-181.206 -176.766 304.137  255 255 255
618.256 -271.287 111.481  255 255 255
184.69 -323.851 539.791  255 255 255
-246.695 -168.616 272.287  255 255 255
-436.782 85.1491 -481.07  255 255 255
566.478 -257.365 2.41689  255 255 255
86.738 -266.835 436.797  255 255 255
98.7524 -273.639 418.415  255 255 255
-232.237 -176.025 289.321  255 255 255
-234.44 -178.999 298.892  255 255 255
-235.525 -174.169 298.182  255 255 255
100.949 -278.834 428.592  255 255 255
-236.449 -178.16 285.671  255 255 255
-156.001 -204.208 353.02  255 255 255
63.5147 -284.203 479.626  255 255 255
588.952 -316.699 112.097  255 255 255
608.54 -315.378 121.749  255 255 255
614.061 -332.041 138.611  255 255 255
-310.392 -22.4771 -315.655  255 255 255
-303.911 -23.2836 -310.618  255 255 255
-189.064 -226.761 362.106  255 255 255
-206.572 -218.709 330.009  255 255 255
-210.252 -211.864 308.924  255 255 255
-35.8643 -281.144 430.956  255 255 255
64.701 -309.722 449.741  255 255 255
96.5925 -315.417 395.453  255 255 255
116.265 -301.493 398.964  255 255 255
-203.062 -232.785 364.085  255 255 255
-40.9232 -296.266 454.066  255 255 255
-159.566 -253.428 377.272  255 255 255
-45.8264 -303.931 452.525  255 255 255
118.083 -314.538 382.614  255 255 255
-144.067 -259.008 389.568  255 255 255
-92.4055 -286.18 412.374  255 255 255
-381.991 -68.485 -242.804  255 255 255
-230.446 -228.658 272.326  255 255 255
-98.1994 -288.921 406.25  255 255 255
-7.20571 -306.854 428.479  255 255 255
-5.63111 -320.695 425.213  255 255 255
-30.2408 -302.409 446.786  255 255 255
-9.25694 -324.617 430.4  255 255 255
-351.647 -141.445 -44.8535  255 255 255
-0.26558 -324.491 423.12  255 255 255
-513.392 -67.503 -251.656  255 255 255
-173.594 -281.836 349.747  255 255 255
-41.3824 -325.88 445.635  255 255 255
-74.5708 -314.843 413.066  255 255 255
-149.831 -285.043 376.841  255 255 255
109.487 -345.004 381.321  255 255 255
-145.29 -277.814 362.429  255 255 255
-38.005 -325.145 439.615  255 255 255
-45.6456 -328.435 424.999  255 255 255
-168.001 -294.597 353.553  255 255 255
78.7508 -345.834 384.06  255 255 255
-53.5576 -312.906 374.648  255 255 255
-163.952 -283.094 343.882  255 255 255
-419.226 -136.677 -166.816  255 255 255
438.966 -413.901 195.271  255 255 255
-365.357 -153.374 -118.971  255 255 255
-427.039 -169.97 -3.05774  255 255 255
-422.477 -153.411 -14.1652  255 255 255
145.775 -361.57 345.113  255 255 255
144.881 -364.897 318.724  255 255 255
-48.1938 -336.905 427.252  255 255 255
89.8939 -356.948 364.216  255 255 255
-79.7875 -322.753 390.994  255 255 255
-386.603 -156.078 -117.614  255 255 255
49.9882 -360.364 399.498  255 255 255
-93.6673 -324.137 371.912  255 255 255
-11.3541 -363.157 398.699  255 255 255
-355.977 -185.129 -95.1982  255 255 255
-162.213 -308.989 329.334  255 255 255
-411.901 -173.629 -113.527  255 255 255
-75.6829 -341.566 385.631  255 255 255
10.3565 -370.999 394.48  255 255 255
-224.631 -285.053 234.942  255 255 255
-73.5777 -342.849 369.919  255 255 255
-222.366 -289.17 236.268  255 255 255
-59.0861 -352.318 377.072  255 255 255
-218.554 -294.967 253.478  255 255 255
-389.773 -207.318 -79.0599  255 255 255
-392.951 -205.938 -71.1779  255 255 255
-405.408 -202.376 -96.0762  255 255 255
-30.2965 -368.837 383.975  255 255 255
-386.057 -204.365 -76.0401  255 255 255
2.57343 -374.805 383.005  255 255 255
-438.058 -208.193 -54.9298  255 255 255
-47.0699 -367.47 392.622  255 255 255
-431.807 -212.164 -48.0089  255 255 255
-152.789 -329.442 243.994  255 255 255
-176.579 -342.719 316.905  255 255 255
-153.806 -339.103 329.445  255 255 255
-552.612 -190.319 -83.7656  255 255 255
-52.1454 -367.115 362.614  255 255 255
120.146 -423.724 400.372  255 255 255
-413.118 -223.225 -32.8995  255 255 255
-179.253 -322.512 265.782  255 255 255
-185.788 -330.227 267.316  255 255 255
-181.997 -342.918 288.089  255 255 255
-171.235 -339.275 296.137  255 255 255
-492.465 -220.187 -55.2158  255 255 255
-381.373 -264.914 9.641  255 255 255
-471.637 -241.51 -12.1857  255 255 255
-460.471 -238.074 -29.7053  255 255 255
171.6 -451.146 344.542  255 255 255
53.5368 -421.491 399.324  255 255 255
-203.683 -350.522 248.618  255 255 255
-41.5938 -400.252 372.459  255 255 255
-368.134 -298.663 57.501  255 255 255
-58.9461 -410.875 338.399  255 255 255
-420.714 -283.21 9.05365  255 255 255
-367.091 -299.538 52.418  255 255 255
-32.4513 -427.889 368.178  255 255 255
-241.07 -364.414 265.545  255 255 255
-46.1091 -429.592 388.123  255 255 255
-413.86 -301.71 -3.89211  255 255 255
-220.588 -374.304 272.504  255 255 255
-232.682 -387.54 245.502  255 255 255
63.9868 -491.498 425.467  255 255 255
-458.978 -326.238 90.8633  255 255 255
-392.044 -348.453 110.765  255 255 255
-456.762 -342.519 112.422  255 255 255
-461.215 -348.685 126.657  255 255 255
49.5914 -523.734 463.405  255 255 255
94.6979 -556.976 423.975  255 255 255
101.184 -557.314 423.401  255 255 255
25.8406 -549.568 513.403  255 255 255
25.0817 -548.174 506.852  255 255 255
-277.553 -467.486 291.559  255 255 255
-63.1418 -528.04 395.269  255 255 255
-65.3229 -534.368 395.707  255 255 255
-49.7734 -543.271 409.494  255 255 255
-37.9055 992.896 -470.857  255 255 255
77.7554 1016.72 -504.333  255 255 255
367.702 1100.49 -623.417  255 255 255
88.9526 1019.77 -511.496  255 255 255
415.298 1109.48 -635.639  255 255 255
502.114 1186.34 -747.296  255 255 255
349.846 1107.43 -649.268  255 255 255
122.934 1035.84 -565.657  255 255 255
281.88 1088.97 -658.057  255 255 255
-48.7909 945.472 -476.118  255 255 255
-59.0971 950.871 -484.072  255 255 255
468.822 1132.96 -766.444  255 255 255
485.542 1149.01 -802.296  255 255 255
483.682 1145.79 -777.196  255 255 255
473.201 1086.15 -682.994  255 255 255
539.778 1180.3 -826.58  255 255 255
290.663 1053.44 -667.93  255 255 255
364.086 1099.99 -734.734  255 255 255
365.238 1101.65 -724.605  255 255 255
-64.696 925.626 -481.193  255 255 255
-38.3691 927.899 -492.945  255 255 255
402.954 1103.59 -720.887  255 255 255
-317.862 771.002 -270.923  255 255 255
632.345 1174.87 -860.238  255 255 255
130.771 993.553 -578.089  255 255 255
436.621 555.433 -40.1883  255 255 255
-534.23 762.92 -233.686  255 255 255
-495.462 654.423 -100.447  255 255 255
157.987 989.662 -598.868  255 255 255
137.181 975.998 -589.469  255 255 255
205.058 1006.52 -637.815  255 255 255
452.228 333.925 255.518  255 255 255
8.48647 932.663 -540.729  255 255 255
-10.4951 922.33 -524.655  255 255 255
510.585 1057.24 -730.84  255 255 255
114.842 961.193 -593.038  255 255 255
-309.395 813.343 -349.735  255 255 255
60.8139 955.422 -575.639  255 255 255
320.759 149.209 476.964  255 255 255
494.928 242.248 312.654  255 255 255
527.903 247.544 329.258  255 255 255
55.6568 945.35 -559.574  255 255 255
301.163 1020.38 -688.298  255 255 255
-616.503 695.856 -174.375  255 255 255
-600.394 705.336 -180.031  255 255 255
321.061 119.862 510.426  255 255 255
346.129 169.278 438.369  255 255 255
-83.6572 907.06 -495.364  255 255 255
-82.598 891.35 -493.86  255 255 255
-372.177 779.085 -322.985  255 255 255
176.529 1004.59 -655.437  255 255 255
87.7162 -45.4 748.865  255 255 255
494.226 275.934 279.787  255 255 255
160.871 998.665 -638.567  255 255 255
321.55 180.718 426.09  255 255 255
529.609 257.484 313.524  255 255 255
123.986 20.3396 653.247  255 255 255
-539.587 714.754 -239.604  255 255 255
-347.138 772.623 -332.361  255 255 255
330.435 1089.65 -822.929  255 255 255
335.895 1089.55 -820.02  255 255 255
141.372 972.676 -636.157  255 255 255
531.584 344.857 179.006  255 255 255
-547.008 699.504 -218.648  255 255 255
-455.96 742.365 -271.161  255 255 255
-110.93 858.981 -493.2  255 255 255
-69.6705 885.605 -522.247  255 255 255
317.788 1007.14 -730.484  255 255 255
168.547 953.025 -657.149  255 255 255
167.797 968.774 -660.098  255 255 255
269.719 1002.09 -736.947  255 255 255
-605.048 675.856 -191.325  255 255 255
291.903 994.416 -729.006  255 255 255
359.94 1073.7 -852.746  255 255 255
271.52 984.733 -740.323  255 255 255
668.679 1105.57 -941.506  255 255 255
487.09 429.612 30.7712  255 255 255
-109.224 855.871 -514.293  255 255 255
-115.05 844.845 -494.72  255 255 255
-4.76988 883.153 -562.08  255 255 255
549.027 460.168 -20.513  255 255 255
89.7332 912.073 -615.408  255 255 255
348.444 1003.11 -755.199  255 255 255
464.706 1029.5 -839.657  255 255 255
-480.294 701.693 -287.952  255 255 255
507.101 1058.86 -883.194  255 255 255
636.477 1067.09 -931.444  255 255 255
-51.095 853.679 -569.145  255 255 255
861.563 1096.83 -1008.67  255 255 255
864.271 1103 -1027.27  255 255 255
447.532 1013.28 -861.926  255 255 255
-272.024 774.895 -443.115  255 255 255
-125.514 819.316 -527.093  255 255 255
-124.846 819.582 -533.877  255 255 255
490.818 1001.02 -876.987  255 255 255
545.171 219.74 252.732  255 255 255
524.065 210.633 273.299  255 255 255
457.267 981.624 -838.679  255 255 255
476.894 1011.57 -872.451  255 255 255
439.002 998.807 -862.112  255 255 255
769.37 1108.33 -1047.67  255 255 255
-204.709 774.326 -486.808  255 255 255
1009.04 1214.27 -1272.03  255 255 255
-76.7162 827.733 -580.979  255 255 255
-56.8877 838.857 -579.551  255 255 255
473.455 994.616 -889.57  255 255 255
721.699 1058.84 -1002.21  255 255 255
1147.04 1274.73 -1377.67  255 255 255
491.221 368.113 49.2736  255 255 255
481.163 994.226 -886.963  255 255 255
529.421 954.742 -855.819  255 255 255
370.111 962.992 -839.522  255 255 255
-37.1086 816.854 -604.33  255 255 255
-474.451 803.313 -503.916  255 255 255
-464.316 677.065 -330.042  255 255 255
509.678 986.826 -902.103  255 255 255
288.914 908.826 -771.438  255 255 255
138.355 871.504 -717.059  255 255 255
-51.4732 808.196 -606.263  255 255 255
567.706 978.111 -906.197  255 255 255
-452.833 794.479 -509.243  255 255 255
-425.951 683.474 -364.163  255 255 255
-333.049 711.908 -443.427  255 255 255
-85.0966 800.048 -581.683  255 255 255
473.761 425.252 -101.104  255 255 255
489.336 346.694 18.2745  255 255 255
-580.501 629.656 -263.872  255 255 255
-575.578 617.342 -276.785  255 255 255
-235.378 727.761 -497.456  255 255 255
288.353 890.797 -810.683  255 255 255
-419.783 640.299 -326.211  255 255 255
-421.214 679.724 -391.458  255 255 255
350.566 897.291 -824.314  255 255 255
387.141 953.591 -900.583  255 255 255
-71.89 794.475 -614.547  255 255 255
-446.025 657.699 -375.538  255 255 255
-192.146 756.667 -529.277  255 255 255
-86.008 780.495 -610.763  255 255 255
197.688 864.327 -759.997  255 255 255
245.013 868.784 -793.663  255 255 255
-82.9349 800.017 -642.211  255 255 255
-98.4674 774.006 -603.179  255 255 255
-421.294 667.21 -398.171  255 255 255
51.8553 800.634 -687.714  255 255 255
230.937 860.339 -809.468  255 255 255
237.151 873.952 -808.824  255 255 255
-159.346 753.159 -571.57  255 255 255
-688.368 557.005 -210.075  255 255 255
-690.845 560.721 -203.377  255 255 255
603.783 935.434 -978.158  255 255 255
599.089 933.758 -974.513  255 255 255
-171.341 739.122 -564.606  255 255 255
128.006 823.802 -761.988  255 255 255
120.719 834.825 -752.792  255 255 255
810.607 992.127 -1079.45  255 255 255
-692.756 563.217 -206.122  255 255 255
-423.839 670.977 -423.36  255 255 255
485.792 135.898 261.846  255 255 255
-425.784 663.706 -423.53  255 255 255
899.074 1083.89 -1285.63  255 255 255
488.2 914.421 -955.989  255 255 255
286.298 900.376 -940.665  255 255 255
257.786 850.058 -811.568  255 255 255
264.151 844 -820.735  255 255 255
-672.228 561.579 -227.32  255 255 255
-107.733 745.933 -641.696  255 255 255
-11.0502 780.744 -685.424  255 255 255
534.029 902.385 -977.207  255 255 255
541.127 915.485 -985.268  255 255 255
518.374 905.014 -953.93  255 255 255
648.409 946.28 -1045.56  255 255 255
-638.214 571.93 -246.011  255 255 255
-7.57707 781.51 -709.603  255 255 255
501.761 97.4834 310.067  255 255 255
284.112 853.214 -867.743  255 255 255
-64.0905 754.094 -668.449  255 255 255
748.299 968.412 -1120.29  255 255 255
1016.16 1096.56 -1392.78  255 255 255
708.901 957.683 -1103.09  255 255 255
1013.41 1117.93 -1443.23  255 255 255
-224.363 700.729 -557.286  255 255 255
-7.80999 767.65 -709.157  255 255 255
-28.8186 749.908 -702.806  255 255 255
722.189 901.327 -1037.07  255 255 255
816.146 986.347 -1183.13  255 255 255
600.128 917.934 -1058.01  255 255 255
564.402 912.616 -1053.74  255 255 255
473.33 878.456 -1012.8  255 255 255
506.852 128.072 221.94  255 255 255
523.973 122.008 210.815  255 255 255
-653.811 547.427 -274.34  255 255 255
497.7 280.688 -42.898  255 255 255
18.3678 727.452 -751.166  255 255 255
15.1612 724.68 -765.013  255 255 255
400.294 826.337 -992.612  255 255 255
480.513 330.01 -146.069  255 255 255
-228.961 661.823 -595.709  255 255 255
297.494 783.791 -903.765  255 255 255
-248.284 655.212 -593.683  255 255 255
277.778 792.452 -934.573  255 255 255
432.653 867.494 -1100.75  255 255 255
397.885 825.453 -1047.02  255 255 255
-680.246 390.054 -79.1241  255 255 255
-128.535 675.566 -712.24  255 255 255
